ply
format ascii 1.0
comment created by gply, a Houdini tool.
comment converted from .[b]geo
comment for more information about Houdini, try:
comment www.sidefx.com
element vertex 1300
property float x
property float y
property float z
element face 0
property list uchar int vertex_indices
end_header
0.462249339 0.613891721 0.130518287 
0.46227622 0.613645613 0.143053964 
0.462303132 0.613398731 0.15558967 
0.462330133 0.613150954 0.168125406 
0.462357193 0.612902343 0.180661172 
0.462385684 0.612691343 0.193182632 
0.462420583 0.612660944 0.20563671 
0.46245715 0.612679064 0.218072802 
0.462281793 0.626213849 0.130444705 
0.462304354 0.626005411 0.142979398 
0.462327003 0.625796318 0.155514106 
0.462349683 0.62558651 0.168048844 
0.462372422 0.625375986 0.180583611 
0.462396681 0.625195503 0.193105474 
0.462427884 0.625160456 0.205566198 
0.462460965 0.625164986 0.218010366 
0.462332517 0.638364911 0.142904818 
0.462350845 0.638193667 0.155438542 
0.462369233 0.638021827 0.167972282 
0.462387681 0.637849391 0.180506051 
0.462407738 0.637699604 0.193028301 
0.462435216 0.637660146 0.205495626 
0.46246478 0.637650967 0.217947885 
0.474616647 0.550866008 0.131639645 
0.474677235 0.550700486 0.144067511 
0.474737793 0.550535381 0.156494945 
0.474798352 0.550370753 0.168921962 
0.47485888 0.550206542 0.181348547 
0.474915743 0.550074637 0.193760142 
0.474956125 0.550086439 0.206106126 
0.474992484 0.550133467 0.218436107 
0.474663287 0.563593864 0.13139458 
0.474713385 0.563386559 0.143851519 
0.474763542 0.563179851 0.156307951 
0.474813789 0.562973738 0.168763891 
0.474864095 0.562768161 0.181219339 
0.474912226 0.562600553 0.193658814 
0.474950343 0.562602997 0.206028089 
0.474986017 0.56264776 0.218380004 
0.474710017 0.576322615 0.131148845 
0.474749655 0.576073408 0.14363496 
0.474789441 0.575824976 0.156120494 
0.474829316 0.575577199 0.168605462 
0.47486937 0.575330138 0.181089833 
0.474908739 0.575126708 0.193557277 
0.474944592 0.575119555 0.205949917 
0.47497952 0.575162113 0.218323797 
0.474756896 0.58905226 0.130902439 
0.474786073 0.588761032 0.143417835 
0.474815428 0.588470697 0.155932575 
0.474844992 0.588181198 0.168446645 
0.474874765 0.587892592 0.180960059 
0.474905312 0.587653041 0.193455562 
0.47493881 0.587636173 0.205871612 
0.474973053 0.587676406 0.218267515 
0.474802107 0.601752579 0.130666837 
0.474821568 0.601429641 0.143207759 
0.474841088 0.601105571 0.15574871 
0.474860668 0.600780308 0.168289706 
0.474880308 0.600453794 0.180830717 
0.474902004 0.600179493 0.193353757 
0.474933118 0.600152731 0.205793217 
0.474966675 0.60019058 0.218211055 
0.474824637 0.614054441 0.130583823 
0.474841356 0.613774359 0.143123657 
0.474858105 0.613493264 0.155663505 
0.474874943 0.613211155 0.168203399 
0.474891812 0.612927973 0.180743307 
0.474910676 0.612688124 0.193266898 
0.474938661 0.61265552 0.205714077 
0.474969029 0.612677813 0.218141198 
0.474847138 0.626356006 0.130500808 
0.474861115 0.62611872 0.143039539 
0.474875152 0.625880659 0.1555783 
0.474889219 0.625641704 0.168117091 
0.474903315 0.625401855 0.180655897 
0.474919319 0.625196636 0.19318001 
0.474944204 0.625158489 0.205634877 
0.474971414 0.625165105 0.218071282 
0.474869668 0.638657212 0.130417779 
0.474880904 0.638462842 0.142955422 
0.474892169 0.638267696 0.155493081 
0.474903494 0.638071954 0.168030769 
0.474914849 0.637875438 0.180568472 
0.474928021 0.637705028 0.193093106 
0.474949747 0.637661517 0.205555618 
0.474973798 0.637652516 0.218001321 
0.487289488 0.550957084 0.131833613 
0.487318635 0.550770879 0.144251809 
0.487347811 0.55058527 0.156669497 
0.487377018 0.550400317 0.169086695 
0.487406194 0.550216019 0.1815034 
0.487437129 0.550068617 0.193903044 
0.487475842 0.550083101 0.206228852 
0.487516463 0.550136387 0.218537062 
0.487314016 0.563709259 0.13155821 
0.487337738 0.563476086 0.144009218 
0.487361491 0.563243687 0.1564596 
0.487385303 0.563012123 0.168909386 
0.487409174 0.562781394 0.181358561 
0.487435102 0.562594056 0.193789572 
0.487470061 0.562598288 0.206141666 
0.487507284 0.56264931 0.218474701 
0.487338632 0.576462448 0.131282046 
0.487356901 0.576182187 0.143765956 
0.487375259 0.575902939 0.156249151 
0.487393677 0.575624585 0.168731615 
0.487412214 0.575347304 0.181213364 
0.487433106 0.575119734 0.193675846 
0.487464309 0.575113535 0.20605433 
0.487498105 0.575162232 0.21841222 
0.487363309 0.589216769 0.131005123 
0.487376124 0.588889241 0.143522054 
0.487389058 0.588562906 0.15603815 
0.487402141 0.588237703 0.168553397 
0.487415314 0.587913692 0.181067795 
0.487431139 0.58764571 0.193561867 
0.487458587 0.587628782 0.20596683 
0.487488955 0.587675214 0.218349636 
0.487387091 0.601935208 0.13074173 
0.487394929 0.601573288 0.143286929 
0.487402767 0.601209939 0.155832157 
0.487410635 0.600845098 0.168377444 
0.487418532 0.600478828 0.180922747 
0.487429261 0.600171804 0.193447754 
0.487452924 0.600143969 0.205879197 
0.487479895 0.600187957 0.218286857 
0.487399727 0.614216685 0.130649269 
0.487406343 0.613902748 0.143193275 
0.487412989 0.613587558 0.155737311 
0.487419635 0.613271117 0.168281361 
0.487426341 0.612953365 0.180825472 
0.487435579 0.612684846 0.193351164 
0.487456679 0.612650156 0.205791399 
0.487480849 0.612676561 0.218209535 
0.487412363 0.626497746 0.130556807 
0.487417758 0.62623179 0.143099621 
0.487423211 0.625964761 0.15564245 
0.487428665 0.625696659 0.168185309 
0.487434149 0.625427544 0.180728182 
0.487441927 0.625197709 0.193254545 
0.487460464 0.625156462 0.205703527 
0.487481833 0.625165284 0.218132153 
0.48742497 0.638778448 0.13046436 
0.487429202 0.638560474 0.143005967 
0.487433434 0.638341606 0.155547589 
0.487437695 0.638121903 0.168089241 
0.487441957 0.637901306 0.180630907 
0.487448275 0.637710333 0.193157896 
0.487464249 0.637662888 0.20561558 
0.487482816 0.637654066 0.218054712 
0.499961674 0.551047981 0.132027209 
0.499959499 0.550841033 0.144435823 
0.499957353 0.550634921 0.156843841 
0.499955237 0.550429642 0.169251278 
0.499953121 0.550225198 0.181658134 
0.499958307 0.550062478 0.194045797 
0.499995619 0.550079882 0.20635131 
0.500040472 0.550139368 0.218637481 
0.499964207 0.563824475 0.131721497 
0.499961615 0.563565373 0.144166648 
0.499959052 0.563307345 0.15661107 
0.499956518 0.56305033 0.169054747 
0.499953985 0.562794387 0.181497708 
0.4999578 0.56258738 0.193920225 
0.499989808 0.562593699 0.206255093 
0.500028551 0.562650919 0.218568996 
0.499966741 0.57660228 0.131414905 
0.49996376 0.576290786 0.143896714 
0.49996078 0.575980663 0.156377643 
0.4999578 0.575671732 0.168857679 
0.499954849 0.575364113 0.181336835 
0.499957323 0.575112581 0.19379434 
0.499984056 0.575107574 0.206158623 
0.500016689 0.575162411 0.218500376 
0.499969304 0.589381278 0.13110742 
0.499965876 0.589017332 0.143626019 
0.499962479 0.588654935 0.156143561 
0.499959111 0.58829397 0.16866006 
0.499955744 0.587934494 0.18117553 
0.499956876 0.58763814 0.193668157 
0.499978334 0.58762145 0.206061959 
0.500004828 0.587674022 0.218431607 
0.499971867 0.60211736 0.130816504 
0.499968082 0.601716518 0.143366009 
0.499964297 0.601313949 0.155915573 
0.499960482 0.60090965 0.168465152 
0.499956667 0.600503623 0.181014791 
0.499956459 0.600163877 0.19354175 
0.499972701 0.600135326 0.205965117 
0.499993116 0.600185394 0.218362585 
0.499974638 0.614378452 0.13071461 
0.499971181 0.614030719 0.143262818 
0.499967724 0.613681495 0.155811056 
0.499964267 0.613330781 0.168359324 
0.49996078 0.612978578 0.180907637 
0.499960452 0.612681389 0.193435431 
0.499974698 0.612644792 0.205868676 
0.499992669 0.612675369 0.218277827 
0.49997741 0.626639128 0.130612746 
0.49997431 0.626344562 0.143159628 
0.499971181 0.626048625 0.155706555 
0.499968052 0.625751495 0.168253511 
0.499964923 0.625453055 0.180800483 
0.499964476 0.625198603 0.193329081 
0.499976695 0.625154436 0.205772147 
0.499992222 0.625165403 0.218192995 
0.499980181 0.638899386 0.130510867 
0.49997741 0.638657868 0.143056452 
0.499974608 0.638415337 0.155602053 
0.499971807 0.638171732 0.168147683 
0.499969035 0.637927055 0.180693343 
0.499968499 0.637715578 0.193222702 
0.499978721 0.637664258 0.205675513 
0.499991804 0.637655616 0.218108088 
0.512642622 0.550959647 0.131838933 
0.512609839 0.550773084 0.144264698 
0.512576997 0.550587177 0.156689942 
0.512544274 0.550401866 0.169114679 
0.512511492 0.550217152 0.181538925 
0.512489617 0.550068915 0.19394426 
0.512516201 0.550080001 0.206268102 
0.512554288 0.550128937 0.218572795 
0.512622237 0.563713074 0.131561831 
0.512594223 0.563479602 0.14401938 
0.512566149 0.563246906 0.156476319 
0.512538016 0.563015044 0.168932632 
0.512509882 0.562783957 0.181388363 
0.51249069 0.562595665 0.193824366 
0.512511849 0.562595546 0.206174955 
0.512542665 0.562641025 0.218505114 
0.512601852 0.576467574 0.131283998 
0.512578547 0.576187015 0.143773437 
0.512555182 0.575907469 0.156262144 
0.512531698 0.575628936 0.168750137 
0.512508214 0.575351357 0.181237429 
0.512491763 0.575122654 0.193704218 
0.512507498 0.575111151 0.206081629 
0.512531102 0.575153172 0.218437299 
0.512581348 0.589223087 0.131005436 
0.512562752 0.58889538 0.143526852 
0.512544155 0.588568866 0.156047434 
0.51252538 0.588243425 0.168567196 
0.512506545 0.587919235 0.181086138 
0.512492836 0.587649941 0.193583801 
0.512503207 0.587626755 0.205988109 
0.512519598 0.58766526 0.21836935 
0.512561798 0.60194248 0.130740598 
0.512547612 0.601580501 0.143289238 
0.512533367 0.601217091 0.155837923 
0.512519121 0.600852191 0.168386668 
0.512504816 0.600485802 0.180935442 
0.512493908 0.600177407 0.193463251 
0.512498975 0.6001423 0.20589447 
0.512508154 0.600177288 0.218301222 
0.512554348 0.614223182 0.13064824 
0.512541831 0.613909304 0.143195242 
0.512529314 0.613594115 0.155742273 
0.512516797 0.613277674 0.168289348 
0.51250422 0.612959921 0.180836469 
0.512494564 0.61269027 0.19336462 
0.512498677 0.612649202 0.205804721 
0.512506306 0.61266768 0.218222111 
0.512546837 0.626503587 0.130555883 
0.512536049 0.62623769 0.143101245 
0.51252526 0.625970781 0.155646622 
0.512514472 0.625702739 0.168192044 
0.512503624 0.625433683 0.18073751 
0.51249522 0.625202894 0.193265975 
0.512498319 0.625156164 0.205714896 
0.512504518 0.625158131 0.218142942 
0.512539327 0.638783574 0.130463541 
0.512530267 0.638565779 0.143007249 
0.512521207 0.63834703 0.155550987 
0.512512147 0.638127506 0.168094754 
0.512502968 0.637907028 0.180638552 
0.512495816 0.63771534 0.193167299 
0.512498021 0.637663305 0.205624998 
0.51250273 0.637648761 0.218063697 
0.525324225 0.550870895 0.131649613 
0.525260627 0.550704718 0.144092619 
0.525197148 0.550539017 0.156535193 
0.52513361 0.550373673 0.16897732 
0.525070131 0.550208807 0.181419015 
0.525021195 0.550075352 0.193842217 
0.525036871 0.55008024 0.20618476 
0.525068164 0.550118566 0.21850802 
0.525280833 0.563601196 0.1314013 
0.525227189 0.563393354 0.143871322 
0.525173545 0.563186109 0.156340852 
0.525119781 0.5629794 0.168809891 
0.525066018 0.562773287 0.181278422 
0.525023818 0.562603831 0.19372806 
0.525033891 0.562597513 0.206094697 
0.525056899 0.562631249 0.218441144 
0.525237381 0.576332331 0.131152362 
0.525193632 0.576082766 0.143649489 
0.525149822 0.575833857 0.156146064 
0.525105834 0.575585723 0.168642089 
0.525061786 0.575338244 0.181137547 
0.525026381 0.575132668 0.193613678 
0.52503103 0.575114787 0.206004471 
0.525045633 0.575143933 0.218374148 
0.52519381 0.589064419 0.130902797 
0.525159955 0.588772893 0.143427134 
0.52512598 0.588482261 0.155950844 
0.525091827 0.588192523 0.168473929 
0.525057435 0.587903559 0.180996373 
0.525028944 0.587661684 0.193499088 
0.525028169 0.58763212 0.205914095 
0.525034368 0.587656617 0.218307033 
0.525151968 0.601766646 0.130664393 
0.525127292 0.601443708 0.143212169 
0.525102615 0.601119578 0.15575999 
0.52507782 0.600794196 0.168307871 
0.525053024 0.600467682 0.180855796 
0.525031447 0.600190759 0.193384439 
0.525025368 0.600149393 0.205823615 
0.525023222 0.600169241 0.218239799 
0.525134206 0.614067197 0.130581617 
0.525112629 0.613787174 0.143127412 
0.525091052 0.613506198 0.155673251 
0.525069416 0.613224149 0.168219134 
0.525047719 0.612941027 0.180765063 
0.525028706 0.612699032 0.193293557 
0.525022686 0.612653613 0.205740601 
0.525020063 0.61266005 0.218166351 
0.525116384 0.62636739 0.130498841 
0.525097966 0.626130342 0.143042654 
0.525079489 0.62589246 0.155586511 
0.525060952 0.625653744 0.168130398 
0.525042355 0.625414073 0.180674344 
0.525025964 0.625207126 0.193202659 
0.525020003 0.625157952 0.205657512 
0.525016844 0.625150919 0.218092844 
0.525098622 0.638667285 0.130416051 
0.525083244 0.638473213 0.142957896 
0.525067866 0.638278484 0.155499771 
0.525052488 0.638082981 0.168041691 
0.525036991 0.637886822 0.180583626 
0.525023162 0.637715101 0.193111762 
0.525017321 0.637662351 0.205574363 
0.525013685 0.637641907 0.218019277 
0.538006425 0.550782025 0.131459817 
0.537912011 0.550636232 0.143920183 
0.537817657 0.550490677 0.156380147 
0.537723362 0.550345361 0.168839738 
0.537629128 0.550200343 0.181298941 
0.537552893 0.55008167 0.19374004 
0.537557602 0.550080538 0.206101313 
0.537582099 0.550108254 0.21844314 
0.537939966 0.563489199 0.131240338 
0.537860632 0.563306928 0.143722951 
0.537781298 0.563125074 0.156205162 
0.537701845 0.562943578 0.168686971 
0.537622392 0.562762439 0.181168377 
0.537557006 0.562611997 0.193631649 
0.537556052 0.56259948 0.20601435 
0.537571132 0.562621474 0.218377084 
0.537873387 0.576197088 0.131020337 
0.537809134 0.575978339 0.143525288 
0.537744761 0.575760067 0.15602982 
0.537680209 0.575542212 0.168533906 
0.537615478 0.575324893 0.18103759 
0.537561119 0.575142503 0.193523079 
0.537554562 0.575118542 0.205927253 
0.537560165 0.575134754 0.218310937 
0.53780663 0.588905752 0.130799785 
0.537757456 0.588650346 0.143327177 
0.537708044 0.588395536 0.155854106 
0.537658393 0.588141322 0.168380573 
0.537608504 0.587887704 0.180906564 
0.537565172 0.587673247 0.193414345 
0.537553132 0.587637603 0.205840006 
0.537549198 0.587648034 0.218244672 
0.537742317 0.601590276 0.13058807 
0.53770715 0.601306498 0.143135011 
0.537671983 0.601021767 0.155681998 
0.537636638 0.600736022 0.168229043 
0.537601292 0.600449264 0.180776149 
0.537569046 0.600203991 0.193305612 
0.537551761 0.600156605 0.205752715 
0.53753835 0.600161195 0.218178317 
0.537714183 0.613910675 0.13051489 
0.537683547 0.613664746 0.143059507 
0.53765285 0.613417983 0.155604169 
0.537622094 0.613170385 0.16814889 
0.537591219 0.612921894 0.180693656 
0.537562907 0.612707734 0.193222493 
0.537546754 0.612658143 0.205676436 
0.53753382 0.612652421 0.218110532 
0.53768611 0.626230836 0.130441695 
0.537659943 0.626022756 0.142984003 
0.537633777 0.625813961 0.15552634 
0.537607491 0.62560451 0.168068737 
0.537581146 0.625394344 0.180611163 
0.537556767 0.625211298 0.193139359 
0.537541747 0.62515974 0.205600098 
0.53752923 0.625143707 0.218042701 
0.53763634 0.638380468 0.142908484 
0.537614644 0.638209701 0.155448526 
0.537592888 0.638038397 0.167988583 
0.537571073 0.637866497 0.180528685 
0.537550569 0.637714744 0.193056211 
0.537536681 0.637661397 0.2055237 
0.537524641 0.637635052 0.217974827 
0.55068922 0.550692976 0.131269574 
0.550563872 0.550567508 0.143747374 
0.550438583 0.5504421 0.156224832 
0.550313413 0.550316811 0.168701947 
0.550188363 0.550191641 0.181178704 
0.55008477 0.550087869 0.193637714 
0.550078332 0.550080895 0.206017733 
0.550096095 0.550098002 0.218378171 
0.550599635 0.563377023 0.131078973 
0.550494492 0.563220382 0.143574283 
0.550389349 0.56306386 0.156069249 
0.550284207 0.562907517 0.168563887 
0.550179005 0.562751353 0.181058213 
0.550090432 0.562619984 0.193535134 
0.550078213 0.562601566 0.205933899 
0.550085366 0.562611818 0.218312964 
0.55050987 0.576061726 0.130887926 
0.550424993 0.575873733 0.143400803 
0.550339937 0.575686038 0.155913368 
0.550254762 0.575498521 0.16842562 
0.550169408 0.575311303 0.180937558 
0.550095975 0.575152278 0.19343242 
0.550078154 0.575122356 0.205849931 
0.550074697 0.575125635 0.218247652 
0.550419927 0.588747084 0.130696386 
0.550355256 0.588527679 0.143226966 
0.550290287 0.588308632 0.155757204 
0.550225079 0.588089883 0.168287128 
0.550159633 0.587871552 0.180816725 
0.550101399 0.587684751 0.193329558 
0.550078213 0.587643147 0.205765858 
0.550064147 0.587639511 0.218182251 
0.550332904 0.601413429 0.130511627 
0.550287187 0.601168871 0.143057764 
0.550241411 0.600923598 0.155603945 
0.550195575 0.60067749 0.168150201 
0.550149679 0.600430608 0.180696502 
0.550106704 0.600217104 0.193226784 
0.550078213 0.600163817 0.205681771 
0.550053596 0.600153267 0.21811679 
0.550294399 0.613753796 0.130448043 
0.550254643 0.61354202 0.142991528 
0.550214767 0.61332953 0.155535042 
0.550174832 0.613116384 0.168078616 
0.550134838 0.612902582 0.18062225 
0.550097167 0.612716258 0.193151429 
0.550070882 0.612662673 0.205612227 
0.550047576 0.612644911 0.218054682 
0.550255954 0.626093924 0.130384445 
0.550222099 0.625914872 0.142925277 
0.550188124 0.625735283 0.155466139 
0.55015409 0.625555098 0.168007046 
0.550119996 0.625374436 0.180547997 
0.550087571 0.625215352 0.193076044 
0.550063491 0.625161588 0.205542654 
0.550041616 0.625136554 0.217992529 
0.550161421 0.638140798 0.155397236 
0.550133288 0.637993634 0.167935476 
0.550105155 0.637846053 0.18047376 
0.550077975 0.637714326 0.193000659 
0.5500561 0.637660503 0.205473021 
0.563372672 0.550603807 0.131078869 
0.563216269 0.550498605 0.143574208 
0.563059986 0.550393343 0.156069234 
0.562903881 0.550288081 0.168563917 
0.562747896 0.550182819 0.181058288 
0.562616885 0.550094068 0.193535253 
0.562599123 0.550081313 0.205934033 
0.56261003 0.55008781 0.218313113 
0.56325978 0.563264787 0.130917206 
0.563128769 0.563133597 0.143425286 
0.562997758 0.563002408 0.155933097 
0.562866807 0.562871218 0.168440655 
0.562735796 0.562740028 0.18094793 
0.562623918 0.562627912 0.193438515 
0.562600434 0.562603772 0.205853343 
0.562599659 0.562602162 0.218248755 
0.56314677 0.575926304 0.130755112 
0.563041151 0.575769007 0.143276051 
0.562935412 0.57561177 0.155796751 
0.562829494 0.575454593 0.168317214 
0.562723458 0.575297534 0.180837452 
0.562630892 0.575161934 0.193341687 
0.562601864 0.575126231 0.205772534 
0.562589347 0.575116634 0.218184292 
0.56303364 0.588588357 0.130592614 
0.562953353 0.588404834 0.143126488 
0.562872767 0.58822149 0.155660152 
0.562791944 0.588038266 0.168193609 
0.562710881 0.58785522 0.180726856 
0.562637806 0.587696075 0.19324474 
0.562603295 0.587648749 0.205691636 
0.562579036 0.587631047 0.21811977 
0.56292367 0.601235986 0.130435035 
0.562867403 0.601030886 0.142980412 
0.562811017 0.600825131 0.155525833 
0.562754571 0.60061872 0.168071315 
0.562698066 0.600411654 0.180616841 
0.562644482 0.600230038 0.193147957 
0.562604785 0.600171149 0.205610782 
0.562568843 0.600145459 0.218055218 
0.562874794 0.613596439 0.130381092 
0.562825859 0.613418877 0.142923459 
0.562776804 0.613240838 0.155465871 
0.56272769 0.613062203 0.168008327 
0.562678516 0.612883091 0.180550829 
0.562631488 0.612724721 0.193080351 
0.56259501 0.612667322 0.205547988 
0.562561452 0.61263746 0.217998788 
0.562825978 0.625956655 0.13032712 
0.562784314 0.625806749 0.142866477 
0.562742531 0.625656366 0.155405894 
0.562700748 0.625505567 0.16794534 
0.562658906 0.62535435 0.180484816 
0.562618494 0.625219285 0.193012744 
0.562585294 0.625163436 0.205485165 
0.562554061 0.625129461 0.217942327 
0.576056778 0.55051446 0.130887687 
0.575869143 0.550429523 0.143400669 
0.575681746 0.550344408 0.155913338 
0.575494647 0.550259173 0.168425679 
0.575307727 0.550173759 0.180937707 
0.575149119 0.550100148 0.193432659 
0.575119913 0.550081789 0.205850229 
0.575124085 0.550077617 0.218247965 
0.575920522 0.563152373 0.130755007 
0.575763464 0.563046634 0.143275976 
0.575606525 0.562940717 0.155796736 
0.575449646 0.56283468 0.168317243 
0.575292826 0.562728524 0.180837527 
0.575157642 0.562635779 0.193341807 
0.575122714 0.562605977 0.205772683 
0.575114012 0.562592626 0.218184456 
0.575784147 0.575790823 0.130621925 
0.575657666 0.575664103 0.143151015 
0.575531125 0.575537324 0.155679941 
0.575404406 0.575410426 0.168208688 
0.575277627 0.575283468 0.180737287 
0.575165987 0.575171471 0.19325088 
0.575125575 0.575130224 0.205695063 
0.575103998 0.575107634 0.218120873 
0.575647771 0.588429689 0.13048844 
0.575551748 0.588281929 0.143025756 
0.575455487 0.58813417 0.155562952 
0.575358987 0.58798641 0.168100014 
0.575262249 0.58783859 0.180636957 
0.575174272 0.587707341 0.193159893 
0.575128496 0.587654471 0.205617353 
0.575094044 0.587622702 0.21805723 
0.575514674 0.601058006 0.130358338 
0.575447738 0.600892425 0.14290297 
0.575380743 0.600726306 0.155447662 
0.575313687 0.600559652 0.167992398 
0.575246572 0.60039252 0.180537194 
0.575182259 0.600242853 0.19306913 
0.575131357 0.600178599 0.205539733 
0.57508415 0.600137651 0.217993587 
0.575455368 0.613438606 0.130314022 
0.575397193 0.613295436 0.142855301 
0.5753389 0.613151848 0.15539664 
0.575280607 0.613007843 0.167938009 
0.575222194 0.612863362 0.180479422 
0.575165868 0.612733066 0.193009272 
0.575119257 0.612671971 0.205483705 
0.575075328 0.61263001 0.217942849 
0.575297058 0.625577271 0.155345589 
0.575247467 0.625455856 0.167883605 
0.575197816 0.625334144 0.18042165 
0.575149417 0.625223219 0.192949429 
0.575107098 0.625165403 0.205427662 
0.588741481 0.550424993 0.130696043 
0.588522553 0.550360262 0.143226773 
0.588303983 0.550295293 0.155757159 
0.588085711 0.550230026 0.168287233 
0.587867856 0.550164521 0.180816963 
0.587681532 0.550106168 0.19332993 
0.587640822 0.550082326 0.20576629 
0.58763814 0.550067544 0.218182728 
0.5885818 0.563039899 0.130592391 
0.588398635 0.562959552 0.143126369 
0.588215649 0.562878907 0.155660123 
0.588032782 0.562797964 0.168193683 
0.587850094 0.562716782 0.18072702 
0.587691426 0.562643528 0.193244994 
0.587645054 0.562608242 0.205691934 
0.587628365 0.562583089 0.218120083 
0.58842206 0.575655222 0.130488336 
0.588274598 0.57555908 0.143025696 
0.588127077 0.575462699 0.155562937 
0.587979555 0.57536608 0.168100044 
0.587832034 0.575269163 0.180637032 
0.587701201 0.575180948 0.193160027 
0.587649345 0.575134218 0.205617502 
0.587618709 0.575098693 0.218057394 
0.58826232 0.588270962 0.130383894 
0.588150442 0.588158906 0.142924771 
0.588038385 0.58804667 0.155465588 
0.587926149 0.587934256 0.168006331 
0.587813735 0.587821722 0.180547014 
0.587710857 0.587718427 0.193075016 
0.587653697 0.587660253 0.205543011 
0.587609112 0.587614357 0.21799463 
0.588105857 0.60087955 0.130281493 
0.588028252 0.600753546 0.14282544 
0.587950587 0.600627184 0.155369431 
0.587872863 0.600500345 0.167913467 
0.587795138 0.600373089 0.180457532 
0.587720096 0.600255489 0.192990288 
0.587658048 0.60018611 0.205468625 
0.587599516 0.600129962 0.217931911 
0.587968647 0.613171637 0.142787084 
0.587901115 0.61306262 0.15532735 
0.587833583 0.612953186 0.167867661 
0.587765992 0.612843454 0.180408001 
0.587700248 0.612741292 0.192938194 
0.587643504 0.61267674 0.205419391 
0.587589324 0.612622619 0.21788688 
0.601407468 0.550338268 0.13051115 
0.601163447 0.550292611 0.14305748 
0.60091871 0.550246835 0.155603871 
0.600673139 0.550200999 0.168150306 
0.600426733 0.550155044 0.1806968 
0.600213885 0.550112069 0.193227276 
0.600161552 0.550082922 0.205682352 
0.600152075 0.550057471 0.218117431 
0.601228774 0.562930405 0.130434677 
0.601024091 0.562874138 0.142980203 
0.600818753 0.562817752 0.155525774 
0.60061276 0.562761307 0.168071389 
0.60040617 0.562704802 0.180617079 
0.600225031 0.562651038 0.19314833 
0.600167215 0.562610507 0.205611199 
0.600142658 0.562573612 0.218055695 
0.601049602 0.57552278 0.130358085 
0.600884318 0.575455844 0.142902821 
0.600718498 0.575388849 0.155447617 
0.600552142 0.575321734 0.167992458 
0.600385308 0.575254619 0.180537343 
0.600236058 0.575190067 0.193069369 
0.600172937 0.575138211 0.205540016 
0.600133359 0.575089812 0.2179939 
0.600869894 0.588115394 0.130281359 
0.600744069 0.588037729 0.142825365 
0.600617886 0.587960005 0.155369401 
0.600491226 0.58788228 0.167913482 
0.600364149 0.587804496 0.180457607 
0.600246966 0.587729156 0.192990392 
0.600178778 0.587665975 0.205468774 
0.600124061 0.587606072 0.21793206 
0.600605369 0.600616097 0.142749146 
0.600517988 0.600528657 0.155292168 
0.600430429 0.600441039 0.167835265 
0.600342751 0.600353301 0.180378422 
0.600257456 0.600267708 0.192911804 
0.600184441 0.600193501 0.205397695 
0.600114822 0.600122273 0.21787028 
0.613749266 0.550298452 0.130447611 
0.613537788 0.550258756 0.14299126 
0.613325655 0.550218999 0.155534968 
0.613112867 0.550179183 0.168078735 
0.612899423 0.550139308 0.180622533 
0.612713516 0.550101638 0.193151876 
0.612660766 0.550074756 0.205612764 
0.612643957 0.550050795 0.218055278 
0.613590717 0.56287986 0.130380765 
0.613413393 0.562831044 0.142923266 
0.613235593 0.562782109 0.155465811 
0.613057196 0.562733114 0.168008402 
0.612878263 0.562684059 0.180551052 
0.612720251 0.562636971 0.193080693 
0.612663746 0.562599838 0.205548391 
0.612634957 0.562565446 0.217999235 
0.613431752 0.575461507 0.130313799 
0.613288701 0.575403392 0.142855167 
0.613145232 0.575345278 0.155396596 
0.613001287 0.575287104 0.167938054 
0.612856984 0.57522881 0.180479571 
0.612726927 0.575172424 0.193009511 
0.612666845 0.575124979 0.205483988 
0.612626076 0.575080097 0.217943162 
0.61316365 0.587975979 0.142787009 
0.613054574 0.587908566 0.15532732 
0.612945199 0.587841153 0.167867675 
0.612835467 0.587773681 0.180408075 
0.612733424 0.587707877 0.192938313 
0.612669945 0.58765018 0.205419526 
0.612617195 0.587594748 0.217887044 
0.626090825 0.550258636 0.130384058 
0.625911891 0.55022496 0.142925039 
0.625732422 0.550191164 0.15546608 
0.625552416 0.550157368 0.16800715 
0.625371873 0.550123513 0.180548266 
0.625213027 0.550091147 0.193076476 
0.625159979 0.55006659 0.205543146 
0.625135839 0.550044179 0.217993081 
0.625952482 0.562829375 0.130326807 
0.625802577 0.56278789 0.142866299 
0.625652254 0.562746406 0.155405834 
0.625501454 0.562704861 0.167945415 
0.625350237 0.562663257 0.180485025 
0.625215352 0.562622905 0.193013057 
0.625160336 0.562589169 0.205485553 
0.625127316 0.56255722 0.217942744 
0.625571787 0.575301766 0.155345559 
0.625450313 0.575252414 0.167883649 
0.625328541 0.575203061 0.180421799 
0.625217617 0.575154722 0.192949653 
0.625160694 0.575111747 0.205427915 
0.638139009 0.550163329 0.155397177 
0.637991786 0.550135553 0.16793558 
0.637844086 0.550107658 0.180474013 
0.637712419 0.550080717 0.193001047 
0.637659252 0.550058424 0.205473483 
0.374803305 0.437406778 0.230160311 
0.387293011 0.424869567 0.230159238 
0.387283295 0.424873114 0.242641613 
0.38728863 0.437397778 0.230183646 
0.38727349 0.437403321 0.24266088 
0.387258351 0.437408864 0.255138129 
0.399781883 0.39979586 0.230125532 
0.399779141 0.412326574 0.230152607 
0.399773031 0.412327826 0.242638007 
0.399776548 0.424857676 0.230179802 
0.399763942 0.424861282 0.242659226 
0.399751335 0.424864918 0.255138665 
0.399773955 0.437388778 0.230206981 
0.399754852 0.437394738 0.24268043 
0.399735749 0.437400728 0.255153894 
0.399716645 0.437406719 0.267627358 
0.412314057 0.399792045 0.230152786 
0.412316561 0.399784744 0.24263826 
0.412313402 0.412325025 0.230188146 
0.412311047 0.412321627 0.242664218 
0.412308663 0.4123182 0.255140305 
0.412312895 0.424858391 0.230223641 
0.412305623 0.424858928 0.242690265 
0.412298352 0.424859494 0.255156904 
0.41229111 0.42486003 0.267623544 
0.412312359 0.437391788 0.23025912 
0.412300199 0.437396258 0.242716298 
0.41228804 0.437400758 0.255173475 
0.412275881 0.437405229 0.267630696 
0.412263691 0.437409729 0.280087918 
0.424860299 0.387301922 0.230159611 
0.424864978 0.387291074 0.24264209 
0.424846679 0.39978835 0.230180174 
0.424851388 0.39977479 0.242659733 
0.424856067 0.39976123 0.255139291 
0.424848139 0.412323564 0.230223849 
0.4248496 0.412315458 0.242690533 
0.42485103 0.412307352 0.255157232 
0.42485249 0.412299246 0.267623931 
0.424849719 0.424859226 0.230267689 
0.424847901 0.424856663 0.242721438 
0.424846083 0.4248541 0.255175203 
0.424844295 0.424851537 0.267628938 
0.424842477 0.424848974 0.280082703 
0.424851298 0.437394887 0.230311498 
0.424846202 0.437397867 0.242752314 
0.424841136 0.437400848 0.255193144 
0.424836069 0.437403828 0.267633975 
0.424830973 0.437406808 0.280074805 
0.424827933 0.437409818 0.292526871 
0.437400281 0.374808729 0.230160803 
0.437389791 0.387296677 0.230184183 
0.437396288 0.387280643 0.242661595 
0.437402785 0.387264609 0.255139023 
0.437379301 0.399784625 0.230207548 
0.437386215 0.399764806 0.242681205 
0.437393099 0.399744987 0.255154848 
0.437399983 0.399725169 0.267628521 
0.437382877 0.412322134 0.230259508 
0.437388152 0.412309319 0.242716819 
0.437393397 0.412296474 0.25517413 
0.437398672 0.412283659 0.267631471 
0.437403947 0.412270814 0.280088812 
0.437386543 0.42486006 0.230311692 
0.437390178 0.424854398 0.242752582 
0.437393814 0.424848706 0.255193472 
0.43739745 0.424843043 0.267634332 
0.437401086 0.424837351 0.280075222 
0.437404931 0.424833536 0.292527348 
0.437390238 0.437398016 0.230363816 
0.437392235 0.437399477 0.2427883 
0.437394232 0.437400937 0.255212754 
0.437396258 0.437402427 0.267637223 
0.437398255 0.437403888 0.280061692 
0.437400639 0.437405586 0.292500585 
0.449926615 0.374801934 0.230182573 
0.449934185 0.374785572 0.242659524 
0.449919283 0.387291431 0.23020874 
0.449927598 0.387270182 0.242681101 
0.449935913 0.387248963 0.255153447 
0.449911952 0.399780899 0.230234906 
0.449921042 0.399754822 0.242702648 
0.449930102 0.399728715 0.255170405 
0.449939191 0.399702638 0.267638147 
0.449948281 0.399676561 0.280105919 
0.449917614 0.412320673 0.230295151 
0.449926704 0.41230315 0.242743075 
0.449935764 0.412285596 0.255191028 
0.449944854 0.412268043 0.267638981 
0.449953914 0.412250489 0.280086964 
0.449923426 0.424860865 0.230355665 
0.449932486 0.424852103 0.242783681 
0.449941546 0.424843311 0.255211711 
0.449950635 0.42483452 0.267639756 
0.449959725 0.424825728 0.280067772 
0.449967653 0.424819291 0.292509556 
0.449929208 0.437401116 0.230416074 
0.449938267 0.437401086 0.242824227 
0.449947357 0.437401056 0.255232364 
0.449956417 0.437401026 0.267640501 
0.449965507 0.437400967 0.280048609 
0.449973315 0.437401325 0.292474329 
0.449974597 0.437403679 0.304988563 
0.462452948 0.374795139 0.230204329 
0.462461978 0.374774635 0.242677063 
0.462448776 0.387286186 0.230233297 
0.462458909 0.387259752 0.242700592 
0.462469071 0.387233317 0.255167872 
0.462479204 0.387206882 0.267635196 
0.462444603 0.399777174 0.230262265 
0.462455869 0.399744809 0.242724091 
0.462467134 0.399712473 0.255185932 
0.462478399 0.399680138 0.267647803 
0.462489665 0.399647802 0.280109644 
0.462452382 0.412319183 0.230330765 
0.462465256 0.412296951 0.242769316 
0.462478131 0.412274718 0.255207896 
0.462491006 0.412252456 0.267646521 
0.46250388 0.412230164 0.280085176 
0.462514699 0.412212998 0.292535543 
0.462460279 0.42486167 0.230399579 
0.462474793 0.424849808 0.242814764 
0.462489307 0.424837917 0.25522995 
0.462503821 0.424826026 0.26764515 
0.462518334 0.424814105 0.280060351 
0.462530345 0.424805045 0.292491794 
0.462468207 0.437404215 0.230468273 
0.46248433 0.437402695 0.242860124 
0.462500483 0.437401146 0.255251974 
0.462516606 0.437399596 0.26764378 
0.462532759 0.437398046 0.280035585 
0.462545991 0.437397093 0.292448103 
0.462544382 0.43739903 0.304965287 
0.474980354 0.362295806 0.230194286 
0.474979311 0.374788374 0.23022607 
0.474989772 0.374763727 0.242694601 
0.475000262 0.37473911 0.255163133 
0.474978268 0.387280911 0.230257839 
0.474990219 0.387249261 0.242720068 
0.475002199 0.387217671 0.255182296 
0.47501415 0.38718605 0.267644554 
0.474977225 0.399773419 0.230289593 
0.474990696 0.399734795 0.242745519 
0.475004137 0.399696201 0.255201459 
0.475017577 0.399657607 0.267657429 
0.475031018 0.399619043 0.280113399 
0.474987149 0.412317693 0.230366349 
0.475003809 0.412290782 0.242795542 
0.475020498 0.412263811 0.255224764 
0.475037158 0.41223684 0.267654061 
0.475053817 0.412209809 0.280083358 
0.475067407 0.412188739 0.292526245 
0.474997193 0.424862474 0.230443463 
0.475017101 0.424847513 0.242845803 
0.475037038 0.424832523 0.255248159 
0.475056976 0.424817502 0.267650545 
0.475076914 0.424802482 0.28005293 
0.475093037 0.42479077 0.292474031 
0.475089848 0.424795926 0.304989398 
0.475007236 0.437407315 0.230520412 
0.475030422 0.437404275 0.242895991 
0.475053608 0.437401235 0.255271524 
0.475076795 0.437398195 0.267647058 
0.475100011 0.437395155 0.280022562 
0.475118667 0.437392831 0.292421877 
0.475114167 0.437394351 0.304941982 
0.487503529 0.362287462 0.230213225 
0.487505645 0.374781549 0.23024781 
0.487517565 0.37475279 0.24271211 
0.487529516 0.37472406 0.255176425 
0.487507761 0.387275636 0.230282366 
0.487521529 0.387238801 0.242739528 
0.487535328 0.387201995 0.25519672 
0.487549096 0.387165219 0.267653912 
0.487509876 0.399769664 0.230316922 
0.487525523 0.399724782 0.242766947 
0.487541139 0.399679929 0.255216986 
0.487556756 0.399635106 0.267667055 
0.487572372 0.399590284 0.280117124 
0.487521917 0.412316203 0.230401918 
0.487542391 0.412284553 0.242821738 
0.487562865 0.412252903 0.255241632 
0.487583309 0.412221193 0.267661572 
0.487603754 0.412189454 0.28008157 
0.487620115 0.41216445 0.292517006 
0.487534106 0.424863249 0.230487287 
0.487559438 0.424845189 0.242876828 
0.4875848 0.424827099 0.255266368 
0.487610132 0.424808979 0.267655939 
0.487635493 0.424790859 0.280045509 
0.487655699 0.424776524 0.292456299 
0.487649918 0.424781561 0.30497399 
0.487546295 0.437410414 0.230572492 
0.487576514 0.437405884 0.242931798 
0.487606734 0.437401325 0.255291075 
0.487636983 0.437396795 0.267650336 
0.487667233 0.437392235 0.280009538 
0.487691313 0.437388599 0.292395681 
0.487683922 0.437389702 0.304918647 
0.500026703 0.362279177 0.23023212 
0.500032008 0.374774784 0.230269492 
0.500045359 0.374741942 0.242729574 
0.500058711 0.374709129 0.255189687 
0.500037253 0.387270361 0.230306819 
0.50005281 0.387228429 0.24275893 
0.500068426 0.387186497 0.255211055 
0.500083983 0.387144655 0.267663211 
0.500042498 0.399765939 0.230344146 
0.50006032 0.399714857 0.242788255 
0.500078082 0.399663866 0.255232424 
0.500095844 0.399612933 0.267676622 
0.500113606 0.399562031 0.28012085 
0.500056684 0.412314713 0.230437309 
0.500080884 0.412278473 0.242847785 
0.500105083 0.412242204 0.255258352 
0.500129282 0.412205935 0.267669052 
0.500153422 0.412169635 0.280079871 
0.500172496 0.412140876 0.292507917 
0.500070989 0.424864054 0.230530873 
0.500101686 0.424842983 0.242907599 
0.500132382 0.424821883 0.255284429 
0.500163019 0.424800813 0.267661333 
0.500193715 0.424779713 0.280038297 
0.500217915 0.424762905 0.292438984 
0.50020951 0.424767792 0.30495894 
0.500085294 0.437413514 0.230624199 
0.500122488 0.437407523 0.242967293 
0.500159621 0.437401563 0.255310446 
0.500196755 0.437395632 0.267653644 
0.500233889 0.437389672 0.279996902 
0.500263274 0.437384844 0.29237017 
0.500253081 0.437385499 0.304895908 
0.512543619 0.362300932 0.230221793 
0.512550712 0.374797165 0.230258048 
0.512562215 0.374775559 0.242721185 
0.512573779 0.374753982 0.255184352 
0.512557805 0.387293398 0.230294287 
0.512571394 0.387264878 0.242750093 
0.512584925 0.387236416 0.255205929 
0.512598455 0.387207955 0.26766175 
0.512564957 0.399789572 0.230330512 
0.512580514 0.399754167 0.242778972 
0.512596071 0.399718821 0.255227476 
0.512611628 0.399683505 0.267675996 
0.512627184 0.399648219 0.280124545 
0.512577653 0.41233322 0.230420306 
0.512599647 0.412310004 0.242838055 
0.512621641 0.412286788 0.255255878 
0.512643635 0.412263572 0.267673761 
0.51266557 0.412240356 0.280091733 
0.512682557 0.412222177 0.292524695 
0.512590468 0.424877346 0.230510443 
0.512618899 0.424866527 0.242897391 
0.51264739 0.424855709 0.255284399 
0.512675822 0.424844921 0.267671436 
0.512704253 0.424834132 0.280058533 
0.512726426 0.424825698 0.292466372 
0.512717009 0.424829096 0.30497849 
0.512603283 0.437421501 0.230600357 
0.512638211 0.43742305 0.242956579 
0.51267308 0.43742463 0.25531286 
0.512708008 0.437426209 0.267669141 
0.512742877 0.437427819 0.280025452 
0.512770236 0.43742916 0.292408168 
0.512759149 0.437428951 0.304924428 
0.525060475 0.362322718 0.230211467 
0.525069416 0.374819547 0.230246618 
0.525079131 0.374809176 0.242712811 
0.525088787 0.374798834 0.255179018 
0.525078416 0.387316376 0.23028174 
0.52508992 0.387301356 0.242741257 
0.525101423 0.387286305 0.255200773 
0.525112927 0.387271315 0.26766032 
0.525087416 0.399813205 0.230316862 
0.525100768 0.399793476 0.242769688 
0.525114059 0.399773777 0.255222529 
0.525127411 0.399754107 0.2676754 
0.525140762 0.399734467 0.28012827 
0.525098622 0.412351727 0.230403289 
0.525118411 0.412341505 0.242828339 
0.525138199 0.412331343 0.255253404 
0.525157928 0.41232115 0.267678499 
0.525177658 0.412310988 0.280103654 
0.525192618 0.412303358 0.292541564 
0.525109947 0.424890578 0.230489984 
0.525136173 0.424890041 0.242887169 
0.525162399 0.424889505 0.255284369 
0.525188565 0.424888998 0.267681569 
0.525214791 0.424888492 0.280078828 
0.525234878 0.424888432 0.29249385 
0.525224447 0.424890339 0.30499804 
0.525121272 0.437429488 0.2305765 
0.525153935 0.437438577 0.24294588 
0.525186598 0.437447667 0.255315274 
0.525219202 0.437456787 0.267684668 
0.525251865 0.437465936 0.280054092 
0.525277138 0.437473387 0.292446226 
0.525265157 0.437472314 0.304952979 
0.537588179 0.374841928 0.230235174 
0.537595987 0.374842823 0.242704421 
0.537599027 0.387339383 0.230269194 
0.537608504 0.387337804 0.242732406 
0.537617981 0.387336224 0.255195618 
0.537627459 0.387334675 0.267658859 
0.537609875 0.399836808 0.230303213 
0.537620962 0.399832785 0.242760405 
0.537632108 0.399828762 0.255217582 
0.537643194 0.399824768 0.267674774 
0.53765434 0.399820775 0.280131996 
0.53761965 0.412370175 0.230386272 
0.537637174 0.412373006 0.242818594 
0.537654698 0.412375838 0.255250931 
0.537672222 0.412378699 0.267683268 
0.537689745 0.41238156 0.280115604 
0.53770268 0.41238445 0.292558491 
0.537629426 0.42490381 0.230469525 
0.537653387 0.424913526 0.242876932 
0.537677348 0.424923271 0.255284339 
0.537701368 0.424933016 0.267691761 
0.537725329 0.424942821 0.280099154 
0.53774339 0.424951077 0.292521358 
0.53763926 0.437437475 0.230552614 
0.537669659 0.437454075 0.242935151 
0.537700057 0.437470675 0.255317688 
0.537730455 0.437487334 0.267700225 
0.537760854 0.437503994 0.280082762 
0.5377841 0.437517613 0.292484343 
0.537771225 0.437515616 0.3049815 
0.550106943 0.37486428 0.230223715 
0.550112903 0.37487644 0.242696017 
0.550119638 0.387362361 0.230256647 
0.550127029 0.387374252 0.242723569 
0.55013448 0.387386173 0.255190492 
0.550132334 0.399860412 0.230289549 
0.550141215 0.399872094 0.242751107 
0.550150096 0.399883777 0.255212635 
0.550158978 0.399895459 0.267674178 
0.550140619 0.412388623 0.230369225 
0.550155938 0.412404448 0.242808849 
0.550171196 0.412420303 0.255248457 
0.550186515 0.412436157 0.267688066 
0.550201833 0.412452072 0.280127645 
0.550148904 0.424917012 0.230449036 
0.5501706 0.42493698 0.24286668 
0.550192356 0.424957007 0.255284339 
0.550214112 0.424977034 0.267701954 
0.550235808 0.424997091 0.280119538 
0.550251842 0.425013632 0.292548954 
0.550157249 0.437445432 0.230528712 
0.550185382 0.437469542 0.242924422 
0.550213516 0.437493682 0.255320132 
0.550241649 0.437517852 0.267715842 
0.550269783 0.437542051 0.280111521 
0.550291002 0.43756175 0.29252249 
0.550277233 0.43755886 0.305010051 
0.562625647 0.374886632 0.230212271 
0.56264025 0.387385309 0.230244085 
0.562645614 0.38741073 0.242714718 
0.562651038 0.387436122 0.255185336 
0.562654793 0.399884015 0.230275884 
0.562661469 0.399911374 0.242741793 
0.562668145 0.399938792 0.255207688 
0.56267482 0.39996621 0.267673582 
0.562661588 0.412407041 0.230352148 
0.562674642 0.412435889 0.242799103 
0.562687755 0.412464738 0.255246013 
0.562700808 0.412493587 0.267692894 
0.562713921 0.412522465 0.280139714 
0.562668383 0.424930185 0.230428517 
0.562687874 0.424960434 0.242856428 
0.562707365 0.424990714 0.255284309 
0.562726855 0.425020993 0.267712176 
0.562746346 0.425051302 0.280140013 
0.562760293 0.425076097 0.292576581 
0.562675238 0.437453359 0.230504766 
0.562701106 0.437485009 0.242913693 
0.562726974 0.437516659 0.255322576 
0.562752843 0.437548369 0.267731458 
0.562778771 0.437580079 0.280140311 
0.562797904 0.437605858 0.292560697 
0.575160861 0.387408257 0.230231524 
0.575164199 0.387447178 0.242705867 
0.575177312 0.399907559 0.23026222 
0.575181723 0.399950683 0.242732495 
0.575186193 0.399993807 0.25520274 
0.575182557 0.412425429 0.230335072 
0.575193405 0.412467271 0.242789343 
0.575204253 0.412509114 0.25524357 
0.575215101 0.412550956 0.267697722 
0.575187862 0.424943358 0.230407983 
0.575205088 0.424983859 0.242846176 
0.575222313 0.42502439 0.255284309 
0.575239599 0.425064921 0.267722428 
0.575256824 0.425105453 0.280160487 
0.575193226 0.437461287 0.23048082 
0.57521683 0.437500447 0.242902935 
0.575240433 0.437539637 0.255325049 
0.575264037 0.437578857 0.267747104 
0.5752877 0.437618047 0.280169159 
0.575304806 0.437649906 0.292598933 
0.587699771 0.399931133 0.230248541 
0.587701976 0.399989992 0.242723182 
0.587703586 0.412443817 0.23031798 
0.587712169 0.412498653 0.242779568 
0.587720752 0.412553459 0.255241126 
0.587707341 0.424956501 0.230387434 
0.587722301 0.425007284 0.242835909 
0.587737322 0.425058037 0.255284339 
0.587752283 0.42510882 0.26773271 
0.587711215 0.437469184 0.230456829 
0.587732553 0.437515885 0.242892176 
0.587753892 0.437562615 0.255327493 
0.58777523 0.437609315 0.26776281 
0.587796628 0.437656015 0.280198067 
0.600224137 0.412462085 0.230300769 
0.600230396 0.412529737 0.242769659 
0.600226462 0.424969584 0.230366752 
0.600239038 0.42503047 0.242825434 
0.600251675 0.425091326 0.255284101 
0.600228786 0.437477052 0.230432674 
0.600247741 0.437531173 0.242881179 
0.600266695 0.437585264 0.255329639 
0.600285649 0.437639326 0.267778069 
0.612698555 0.424973816 0.230331197 
0.612703502 0.425029993 0.242794335 
0.612700582 0.437480062 0.230390817 
0.612709939 0.437529862 0.242844969 
0.612719238 0.437579632 0.255299091 
0.625172496 0.437483072 0.23034893 
0.362294167 0.474983037 0.230193421 
0.36228621 0.487505466 0.230212227 
0.362278283 0.500027895 0.230230987 
0.362300217 0.512543678 0.230220735 
0.362322181 0.525059521 0.230210468 
0.374797165 0.449932098 0.230181918 
0.374781638 0.449938834 0.24265866 
0.374790996 0.462457418 0.230203509 
0.374771148 0.462465793 0.24267599 
0.374784797 0.474982738 0.230225101 
0.374760628 0.474992752 0.242693305 
0.374736488 0.475002766 0.255161524 
0.374778628 0.487508059 0.230246693 
0.374750108 0.487519711 0.24271062 
0.374721646 0.487531364 0.255174577 
0.374772459 0.500033379 0.23026821 
0.374739677 0.500046611 0.242727876 
0.374706924 0.500059903 0.255187571 
0.374795377 0.512550712 0.230256855 
0.374773741 0.512562335 0.242719606 
0.374752104 0.512573957 0.255182385 
0.374818295 0.525068104 0.230245501 
0.374807805 0.525078058 0.24271135 
0.374797314 0.525087953 0.2551772 
0.374841213 0.537585437 0.230234146 
0.374841869 0.537593722 0.24270308 
0.387284249 0.449925989 0.230208039 
0.387263685 0.449933529 0.242680147 
0.387243152 0.449941069 0.255152255 
0.387279838 0.4624542 0.230232418 
0.387253881 0.462463737 0.2426994 
0.387227923 0.462473243 0.255166411 
0.387201995 0.46248278 0.267633408 
0.387275428 0.474982411 0.230256781 
0.387244076 0.474993944 0.242718652 
0.387212723 0.475005448 0.255180538 
0.387181371 0.475016952 0.267642438 
0.387271017 0.487510622 0.230281129 
0.387234241 0.487524152 0.242737889 
0.387197495 0.487537652 0.255194664 
0.387160778 0.487551153 0.267651469 
0.387266606 0.500038862 0.230305418 
0.387224495 0.5000543 0.242757052 
0.387182444 0.500069797 0.255208731 
0.387140423 0.500085235 0.267660439 
0.387290537 0.512557745 0.230292976 
0.387261748 0.512571394 0.24274835 
0.387232989 0.512584984 0.255203754 
0.387204289 0.512598574 0.267659187 
0.387314439 0.525076687 0.230280519 
0.387298971 0.525088429 0.242739648 
0.387283564 0.525100172 0.255198777 
0.387268156 0.525111914 0.267657936 
0.38733831 0.53759563 0.230268061 
0.387336224 0.537605524 0.24273093 
0.387334138 0.537615418 0.2551938 
0.387332082 0.537625313 0.267656684 
0.399771333 0.449919879 0.230234146 
0.399745733 0.449928194 0.242701635 
0.399720162 0.449936539 0.255169123 
0.399694562 0.449944884 0.267636627 
0.399668992 0.449953198 0.280104131 
0.39976868 0.462450981 0.230261296 
0.399736613 0.46246168 0.242722809 
0.399704546 0.462472349 0.255184352 
0.399672508 0.462483019 0.267645895 
0.399640471 0.462493688 0.280107439 
0.399766028 0.474982113 0.230288431 
0.399727494 0.474995136 0.242743984 
0.399688959 0.47500813 0.255199552 
0.399650425 0.475021154 0.267655134 
0.39961192 0.475034177 0.280110717 
0.399763376 0.487513214 0.230315566 
0.399718344 0.487528592 0.242765144 
0.399673343 0.487543941 0.255214751 
0.399628341 0.487559289 0.267664373 
0.399583399 0.487574637 0.280114025 
0.399760753 0.500044346 0.230342597 
0.399709314 0.500061989 0.242786214 
0.399657935 0.500079691 0.255229861 
0.399606645 0.500097334 0.267673582 
0.399555385 0.500114977 0.280117303 
0.399785638 0.512564778 0.230329052 
0.399749726 0.512580395 0.242777079 
0.399713874 0.512596011 0.255225122 
0.399678051 0.512611628 0.267673194 
0.399642259 0.512627244 0.280121267 
0.399810523 0.52508527 0.230315521 
0.399790168 0.52509886 0.24276793 
0.399769813 0.525112391 0.255220354 
0.399749517 0.525125921 0.267672807 
0.399729222 0.525139511 0.28012526 
0.399835408 0.537605762 0.230301961 
0.39983058 0.537617266 0.242758781 
0.399825782 0.53762877 0.255215585 
0.399821013 0.537640274 0.26767242 
0.399816245 0.537651777 0.280129254 
0.412311822 0.449925184 0.23029457 
0.412294775 0.449933589 0.2427423 
0.412277699 0.449942023 0.255190074 
0.412260622 0.449950427 0.267637849 
0.412243545 0.449958861 0.280085653 
0.412311286 0.462458581 0.23032999 
0.412289321 0.462470919 0.242768288 
0.412267357 0.462483287 0.255206615 
0.412245393 0.462495625 0.267645001 
0.412223369 0.462507963 0.280083388 
0.412206709 0.462518156 0.292533576 
0.412310719 0.474992007 0.230365381 
0.412283868 0.475008279 0.242794245 
0.412257016 0.475024551 0.255223185 
0.412230134 0.475040793 0.267652124 
0.412203193 0.475057065 0.280081153 
0.41218245 0.475070179 0.292523801 
0.412310123 0.487525433 0.230400741 
0.412278414 0.487545609 0.242820188 
0.412246644 0.487565815 0.255239695 
0.412214845 0.487585992 0.267659277 
0.412183017 0.487606168 0.280078918 
0.412158161 0.487622172 0.292514056 
0.412309587 0.50005883 0.230435938 
0.412273049 0.50008291 0.242845982 
0.412236512 0.500106931 0.255256116 
0.412199944 0.500131011 0.267666399 
0.412163377 0.500154972 0.280076772 
0.412134588 0.500173867 0.292504489 
0.412329257 0.512577951 0.23041901 
0.412305653 0.512599945 0.242836356 
0.41228202 0.51262188 0.255253792 
0.412258387 0.512643874 0.267671257 
0.412234783 0.512665808 0.280088842 
0.412216425 0.512682796 0.292521507 
0.412348926 0.525097013 0.230402067 
0.412338197 0.52511692 0.24282673 
0.412327498 0.525136828 0.255251437 
0.412316769 0.525156736 0.267676175 
0.4123061 0.525176585 0.280100942 
0.412298173 0.525191724 0.292538613 
0.412368566 0.537616134 0.23038511 
0.412370741 0.537633955 0.242817104 
0.412372917 0.537651777 0.255249113 
0.412375122 0.537669539 0.267681122 
0.412377328 0.537687361 0.280113131 
0.412379801 0.537700653 0.292555779 
0.424852848 0.449930578 0.230355263 
0.424844503 0.449939102 0.242783159 
0.424836189 0.449947596 0.255211085 
0.424827844 0.449956119 0.267638981 
0.424819469 0.449964643 0.280066907 
0.424813658 0.449971855 0.292508572 
0.424854398 0.4624663 0.230398998 
0.424842805 0.462480336 0.24281399 
