ply
format ascii 1.0
element vertex 894
property float x
property float y
property float z
end_header
0.4124999940395355 0.5 0.22999510169029236
0.4124999940395355 0.5 0.2424951046705246
0.4124999940395355 0.5 0.25499510765075684
0.4124999940395355 0.5 0.2674950957298279
0.4124999940395355 0.5 0.2799951136112213
0.41249963641166687 0.5000048875808716 0.292496919631958
0.4124999940395355 0.512499988079071 0.22999510169029236
0.4124999940395355 0.512499988079071 0.2424950897693634
0.4124999940395355 0.512499988079071 0.25499510765075684
0.4124999940395355 0.512499988079071 0.2674950957298279
0.4124999940395355 0.512499988079071 0.2799951136112213
0.41249966621398926 0.5125042796134949 0.2924966812133789
0.4124999940395355 0.5249999761581421 0.22999510169029236
0.4124999940395355 0.5249999761581421 0.2424951046705246
0.4124999940395355 0.5249999761581421 0.25499510765075684
0.4124999940395355 0.5249999761581421 0.2674950957298279
0.4124999940395355 0.5249999761581421 0.2799951136112213
0.41249972581863403 0.5250036716461182 0.2924964427947998
0.4124999940395355 0.5375000238418579 0.22999510169029236
0.4124999940395355 0.5375000238418579 0.2424951046705246
0.4124999940395355 0.5375000238418579 0.25499510765075684
0.4124999940395355 0.5375000238418579 0.2674950957298279
0.4124999940395355 0.5375000238418579 0.2799951136112213
0.4124997556209564 0.5375030636787415 0.2924962341785431
0.42500001192092896 0.44999998807907104 0.22999510169029236
0.42500001192092896 0.44999998807907104 0.2424951046705246
0.42500001192092896 0.44999998807907104 0.25499510765075684
0.42500001192092896 0.44999998807907104 0.2674950957298279
0.42500001192092896 0.44999998807907104 0.2799951136112213
0.424999862909317 0.4500020742416382 0.29249587655067444
0.42500001192092896 0.4625000059604645 0.22999510169029236
0.42500001192092896 0.4625000059604645 0.2424951046705246
0.42500001192092896 0.4625000059604645 0.25499510765075684
0.42500001192092896 0.4625000059604645 0.2674950957298279
0.42500001192092896 0.4625000059604645 0.2799951136112213
0.42499980330467224 0.4625026285648346 0.29249608516693115
0.42500001192092896 0.4749999940395355 0.22999510169029236
0.42500001192092896 0.4749999940395355 0.2424951046705246
0.42500001192092896 0.4749999940395355 0.25499510765075684
0.42500001192092896 0.4749999940395355 0.2674950957298279
0.42500001192092896 0.4749999940395355 0.2799951136112213
0.42499977350234985 0.4750031530857086 0.2924962639808655
0.42499837279319763 0.4750220477581024 0.30500316619873047
0.42500001192092896 0.48750001192092896 0.22999510169029236
0.42500001192092896 0.48750001192092896 0.2424951046705246
0.42500001192092896 0.48750001192092896 0.25499510765075684
0.42500001192092896 0.48750001192092896 0.2674950957298279
0.42500001192092896 0.48750001192092896 0.2799951136112213
0.42499974370002747 0.48750367760658264 0.2924964427947998
0.42499807476997375 0.48752573132514954 0.3050045073032379
0.42500001192092896 0.5 0.22999510169029236
0.42500001192092896 0.5 0.2424951046705246
0.42500001192092896 0.5 0.25499510765075684
0.42500001192092896 0.5 0.2674950957298279
0.42500001192092896 0.5 0.2799951136112213
0.4249996840953827 0.5000041723251343 0.2924966514110565
0.42499780654907227 0.5000293850898743 0.30500584840774536
0.42500001192092896 0.512499988079071 0.22999510169029236
0.42500001192092896 0.512499988079071 0.2424950897693634
0.42500001192092896 0.512499988079071 0.25499510765075684
0.42500001192092896 0.512499988079071 0.2674950957298279
0.42500001192092896 0.512499988079071 0.2799951136112213
0.42499974370002747 0.5125036835670471 0.2924964427947998
0.42499807476997375 0.5125256776809692 0.3050045073032379
0.42500001192092896 0.5249999761581421 0.22999510169029236
0.42500001192092896 0.5249999761581421 0.2424951046705246
0.42500001192092896 0.5249999761581421 0.25499510765075684
0.42500001192092896 0.5249999761581421 0.2674950957298279
0.42500001192092896 0.5249999761581421 0.2799951136112213
0.42499977350234985 0.5250031352043152 0.2924962639808655
0.42499837279319763 0.525022029876709 0.30500316619873047
0.42500001192092896 0.5375000238418579 0.22999510169029236
0.42500001192092896 0.5375000238418579 0.2424951046705246
0.42500001192092896 0.5375000238418579 0.25499510765075684
0.42500001192092896 0.5375000238418579 0.2674950957298279
0.42500001192092896 0.5375000238418579 0.2799951136112213
0.42499980330467224 0.537502646446228 0.29249608516693115
0.4375 0.44999998807907104 0.22999510169029236
0.4375 0.44999998807907104 0.2424951046705246
0.4375 0.44999998807907104 0.25499510765075684
0.4375 0.44999998807907104 0.2674950957298279
0.4375 0.44999998807907104 0.2799951136112213
0.43749988079071045 0.4500017464160919 0.2924957573413849
0.437499076128006 0.4500122368335724 0.30499958992004395
0.4375 0.4625000059604645 0.22999510169029236
0.4375 0.4625000059604645 0.2424951046705246
0.4375 0.4625000059604645 0.25499510765075684
0.4375 0.4625000059604645 0.2674950957298279
0.4375 0.4625000059604645 0.2799951136112213
0.43749985098838806 0.4625021815299988 0.2924959063529968
0.43749886751174927 0.46251532435417175 0.3050006926059723
0.4375 0.4749999940395355 0.22999510169029236
0.4375 0.4749999940395355 0.2424951046705246
0.4375 0.4749999940395355 0.25499510765075684
0.4375 0.4749999940395355 0.2674950957298279
0.4375 0.4749999940395355 0.2799951136112213
0.4374997913837433 0.47500261664390564 0.29249608516693115
0.43749862909317017 0.47501835227012634 0.305001825094223
0.4375 0.48750001192092896 0.22999510169029236
0.4375 0.48750001192092896 0.2424951046705246
0.4375 0.48750001192092896 0.25499510765075684
0.4375 0.48750001192092896 0.2674950957298279
0.4375 0.48750001192092896 0.2799951136112213
0.4374997615814209 0.4875030815601349 0.2924962341785431
0.43749839067459106 0.4875214397907257 0.30500295758247375
0.4375 0.5 0.22999510169029236
0.4375 0.5 0.2424951046705246
0.4375 0.5 0.25499510765075684
0.4375 0.5 0.2674950957298279
0.4375 0.5 0.2799951136112213
0.4374997317790985 0.5000035166740417 0.29249638319015503
0.43749818205833435 0.5000244975090027 0.3050040602684021
0.4375 0.512499988079071 0.22999510169029236
0.4375 0.512499988079071 0.2424951046705246
0.4375 0.512499988079071 0.25499510765075684
0.4375 0.512499988079071 0.2674950957298279
0.4375 0.512499988079071 0.2799951136112213
0.4374997615814209 0.5125030279159546 0.2924962341785431
0.43749839067459106 0.5125214457511902 0.30500295758247375
0.4375 0.5249999761581421 0.22999510169029236
0.4375 0.5249999761581421 0.2424951046705246
0.4375 0.5249999761581421 0.25499510765075684
0.4375 0.5249999761581421 0.2674950957298279
0.4375 0.5249999761581421 0.2799951136112213
0.4374997913837433 0.5250025987625122 0.29249608516693115
0.43749862909317017 0.5250183343887329 0.305001825094223
0.4375 0.5375000238418579 0.22999510169029236
0.4375 0.5375000238418579 0.2424951046705246
0.4375 0.5375000238418579 0.25499510765075684
0.4375 0.5375000238418579 0.2674950957298279
0.4375 0.5375000238418579 0.2799951136112213
0.43749985098838806 0.5375022292137146 0.2924959063529968
0.43749886751174927 0.5375153422355652 0.3050006926059723
0.44999998807907104 0.44999998807907104 0.22999510169029236
0.44999998807907104 0.44999998807907104 0.2424951046705246
0.44999998807907104 0.44999998807907104 0.25499510765075684
0.44999998807907104 0.44999998807907104 0.2674950957298279
0.44999998807907104 0.44999998807907104 0.2799951136112213
0.4499998688697815 0.45000138878822327 0.29249563813209534
0.44999924302101135 0.4500097930431366 0.3049986958503723
0.44999998807907104 0.4625000059604645 0.22999510169029236
0.44999998807907104 0.4625000059604645 0.2424951046705246
0.44999998807907104 0.4625000059604645 0.25499510765075684
0.44999998807907104 0.4625000059604645 0.2674950957298279
0.44999998807907104 0.4625000059604645 0.2799951136112213
0.4499998688697815 0.46250176429748535 0.2924957573413849
0.449999064207077 0.4625122547149658 0.30499958992004395
0.44999998807907104 0.4749999940395355 0.22999510169029236
0.44999998807907104 0.4749999940395355 0.2424951046705246
0.44999998807907104 0.4749999940395355 0.25499510765075684
0.44999998807907104 0.4749999940395355 0.2674950957298279
0.44999998807907104 0.4749999940395355 0.2799951136112213
0.4499998390674591 0.47500208020210266 0.29249587655067444
0.4499988853931427 0.47501468658447266 0.3050004839897156
0.4499977231025696 0.47503045201301575 0.31750625371932983
0.44999998807907104 0.48750001192092896 0.22999510169029236
0.44999998807907104 0.48750001192092896 0.2424951046705246
0.44999998807907104 0.48750001192092896 0.25499510765075684
0.44999998807907104 0.48750001192092896 0.2674950957298279
0.44999998807907104 0.48750001192092896 0.2799951136112213
0.4499998092651367 0.48750245571136475 0.292495995759964
0.4499987065792084 0.4875171482563019 0.3050013780593872
0.44999733567237854 0.4875355362892151 0.31750813126564026
0.44999998807907104 0.5 0.22999510169029236
0.44999998807907104 0.5 0.2424951046705246
0.44999998807907104 0.5 0.25499510765075684
0.44999998807907104 0.5 0.2674950957298279
0.44999998807907104 0.5 0.2799951136112213
0.44999977946281433 0.5000028014183044 0.2924961447715759
0.44999852776527405 0.5000196099281311 0.30500227212905884
0.4499969482421875 0.500040590763092 0.3175099790096283
0.44999998807907104 0.512499988079071 0.22999510169029236
0.44999998807907104 0.512499988079071 0.2424951046705246
0.44999998807907104 0.512499988079071 0.25499510765075684
0.44999998807907104 0.512499988079071 0.2674950957298279
0.44999998807907104 0.512499988079071 0.2799951136112213
0.4499998092651367 0.5125024318695068 0.292495995759964
0.4499987065792084 0.5125171542167664 0.3050013780593872
0.44999733567237854 0.5125355124473572 0.31750810146331787
0.44999998807907104 0.5249999761581421 0.22999510169029236
0.44999998807907104 0.5249999761581421 0.2424951046705246
0.44999998807907104 0.5249999761581421 0.25499510765075684
0.44999998807907104 0.5249999761581421 0.2674950957298279
0.44999998807907104 0.5249999761581421 0.2799951136112213
0.4499998390674591 0.5250020623207092 0.29249587655067444
0.4499988853931427 0.5250146985054016 0.3050004839897156
0.4499977231025696 0.5250304341316223 0.31750625371932983
0.44999998807907104 0.5375000238418579 0.22999510169029236
0.44999998807907104 0.5375000238418579 0.2424951046705246
0.44999998807907104 0.5375000238418579 0.25499510765075684
0.44999998807907104 0.5375000238418579 0.2674950957298279
0.44999998807907104 0.5375000238418579 0.2799951136112213
0.4499998688697815 0.5375017523765564 0.2924957573413849
0.449999064207077 0.5375122427940369 0.30499958992004395
0.4625000059604645 0.44999998807907104 0.22999510169029236
0.4625000059604645 0.44999998807907104 0.2424951046705246
0.4625000059604645 0.44999998807907104 0.25499510765075684
0.4625000059604645 0.44999998807907104 0.2674950957298279
0.4625000059604645 0.44999998807907104 0.2799951136112213
0.4624999165534973 0.4500010311603546 0.2924954891204834
0.4624994695186615 0.4500073492527008 0.3049978017807007
0.4625000059604645 0.4625000059604645 0.22999510169029236
0.4625000059604645 0.4625000059604645 0.2424951046705246
0.4625000059604645 0.4625000059604645 0.25499510765075684
0.4625000059604645 0.4625000059604645 0.2674950957298279
0.4625000059604645 0.4625000059604645 0.2799951136112213
0.4624999165534973 0.46250131726264954 0.29249557852745056
0.46249932050704956 0.4625091850757599 0.3049984574317932
0.46249857544898987 0.4625190198421478 0.31750208139419556
0.4625000059604645 0.4749999940395355 0.22999510169029236
0.4625000059604645 0.4749999940395355 0.2424951046705246
0.4625000059604645 0.4749999940395355 0.25499510765075684
0.4625000059604645 0.4749999940395355 0.2674950957298279
0.4625000059604645 0.4749999940395355 0.2799951136112213
0.4624998867511749 0.47500157356262207 0.2924956977367401
0.4624991714954376 0.47501102089881897 0.30499914288520813
0.4624983072280884 0.4750228226184845 0.3175034821033478
0.4625000059604645 0.48750001192092896 0.22999510169029236
0.4625000059604645 0.48750001192092896 0.2424951046705246
0.4625000059604645 0.48750001192092896 0.25499510765075684
0.4625000059604645 0.48750001192092896 0.2674950957298279
0.4625000059604645 0.48750001192092896 0.2799951136112213
0.46249985694885254 0.487501859664917 0.2924957871437073
0.46249905228614807 0.48751285672187805 0.30499979853630066
0.4624980092048645 0.48752665519714355 0.3175048828125
0.4625000059604645 0.5 0.22999510169029236
0.4625000059604645 0.5 0.2424951046705246
0.4625000059604645 0.5 0.25499510765075684
0.4625000059604645 0.5 0.2674950957298279
0.4625000059604645 0.5 0.2799951136112213
0.46249985694885254 0.5000020861625671 0.29249587655067444
0.46249890327453613 0.5000147223472595 0.3050004839897156
0.462497740983963 0.5000304579734802 0.31750625371932983
0.4625000059604645 0.512499988079071 0.22999510169029236
0.4625000059604645 0.512499988079071 0.2424951046705246
0.4625000059604645 0.512499988079071 0.25499510765075684
0.4625000059604645 0.512499988079071 0.2674950957298279
0.4625000059604645 0.512499988079071 0.2799951136112213
0.46249985694885254 0.5125018358230591 0.2924957871437073
0.46249905228614807 0.5125128626823425 0.30499979853630066
0.4624980092048645 0.5125266313552856 0.3175048530101776
0.4625000059604645 0.5249999761581421 0.22999510169029236
0.4625000059604645 0.5249999761581421 0.2424951046705246
0.4625000059604645 0.5249999761581421 0.25499510765075684
0.4625000059604645 0.5249999761581421 0.2674950957298279
0.4625000059604645 0.5249999761581421 0.2799951136112213
0.4624998867511749 0.5250015258789062 0.2924956977367401
0.4624991714954376 0.5250110030174255 0.30499914288520813
0.4624983072280884 0.5250228047370911 0.3175034821033478
0.4625000059604645 0.5375000238418579 0.22999510169029236
0.4625000059604645 0.5375000238418579 0.2424951046705246
0.4625000059604645 0.5375000238418579 0.25499510765075684
0.4625000059604645 0.5375000238418579 0.2674950957298279
0.4625000059604645 0.5375000238418579 0.2799951136112213
0.4624999165534973 0.537501335144043 0.29249557852745056
0.46249932050704956 0.5375092029571533 0.3049984574317932
0.46249857544898987 0.5375190377235413 0.31750208139419556
0.4749999940395355 0.44999998807907104 0.22999510169029236
0.4749999940395355 0.44999998807907104 0.2424951046705246
0.4749999940395355 0.44999998807907104 0.25499510765075684
0.4749999940395355 0.44999998807907104 0.2674950957298279
0.4749999940395355 0.44999998807907104 0.2799951136112213
0.47499993443489075 0.45000067353248596 0.29249536991119385
0.47499963641166687 0.4500048756599426 0.30499690771102905
0.47499924898147583 0.45001012086868286 0.3174988329410553
0.4749999940395355 0.4625000059604645 0.22999510169029236
0.4749999940395355 0.4625000059604645 0.2424951046705246
0.4749999940395355 0.4625000059604645 0.25499510765075684
0.4749999940395355 0.4625000059604645 0.2674950957298279
0.4749999940395355 0.4625000059604645 0.2799951136112213
0.47499993443489075 0.4625008702278137 0.2924954295158386
0.4749995470046997 0.46250611543655396 0.30499735474586487
0.4749990403652191 0.46251270174980164 0.3174997568130493
0.4749999940395355 0.4749999940395355 0.22999510169029236
0.4749999940395355 0.4749999940395355 0.2424951046705246
0.4749999940395355 0.4749999940395355 0.25499510765075684
0.4749999940395355 0.4749999940395355 0.2674950957298279
0.4749999940395355 0.4749999940395355 0.2799951136112213
0.47499990463256836 0.4750010371208191 0.2924954891204834
0.47499945759773254 0.4750073552131653 0.3049978017807007
0.4749988615512848 0.47501522302627563 0.31750068068504333
0.4749999940395355 0.48750001192092896 0.22999510169029236
0.4749999940395355 0.48750001192092896 0.2424951046705246
0.4749999940395355 0.48750001192092896 0.25499510765075684
0.4749999940395355 0.48750001192092896 0.2674950957298279
0.4749999940395355 0.48750001192092896 0.2799951136112213
0.47499990463256836 0.48750123381614685 0.2924955487251282
0.474999338388443 0.4875085949897766 0.3049982488155365
0.4749986529350281 0.487517774105072 0.31750160455703735
0.4749999940395355 0.5 0.22999510169029236
0.4749999940395355 0.5 0.2424951046705246
0.4749999940395355 0.5 0.25499510765075684
0.4749999940395355 0.5 0.2674950957298279
0.4749999940395355 0.5 0.2799951136112213
0.47499987483024597 0.5000013709068298 0.29249563813209534
0.47499924898147583 0.5000097751617432 0.3049986958503723
0.47499847412109375 0.5000202655792236 0.31750255823135376
0.4749999940395355 0.512499988079071 0.22999510169029236
0.4749999940395355 0.512499988079071 0.2424951046705246
0.4749999940395355 0.512499988079071 0.25499510765075684
0.4749999940395355 0.512499988079071 0.2674950957298279
0.4749999940395355 0.512499988079071 0.2799951136112213
0.47499990463256836 0.5125012397766113 0.2924955487251282
0.4749993681907654 0.5125085711479187 0.3049982488155365
0.4749986529350281 0.5125177502632141 0.31750160455703735
0.4749999940395355 0.5249999761581421 0.22999510169029236
0.4749999940395355 0.5249999761581421 0.2424951046705246
0.4749999940395355 0.5249999761581421 0.25499510765075684
0.4749999940395355 0.5249999761581421 0.2674950957298279
0.4749999940395355 0.5249999761581421 0.2799951136112213
0.47499990463256836 0.525001049041748 0.2924954891204834
0.47499945759773254 0.5250073075294495 0.3049978017807007
0.4749988615512848 0.5250151753425598 0.31750068068504333
0.4749999940395355 0.5375000238418579 0.22999510169029236
0.4749999940395355 0.5375000238418579 0.2424951046705246
0.4749999940395355 0.5375000238418579 0.25499510765075684
0.4749999940395355 0.5375000238418579 0.2674950957298279
0.4749999940395355 0.5375000238418579 0.2799951136112213
0.47499993443489075 0.5375009179115295 0.2924954295158386
0.4749995470046997 0.5375061631202698 0.30499735474586487
0.4749990403652191 0.5375127196311951 0.3174997568130493
0.48750001192092896 0.44999998807907104 0.22999510169029236
0.48750001192092896 0.44999998807907104 0.2424951046705246
0.48750001192092896 0.44999998807907104 0.25499510765075684
0.48750001192092896 0.44999998807907104 0.2674950957298279
0.48750001192092896 0.44999998807907104 0.2799951136112213
0.48749998211860657 0.4500003457069397 0.2924952507019043
0.48749983310699463 0.45000243186950684 0.30499598383903503
0.4874996244907379 0.45000505447387695 0.31749698519706726
0.48750001192092896 0.4625000059604645 0.22999510169029236
0.48750001192092896 0.4625000059604645 0.2424951046705246
0.48750001192092896 0.4625000059604645 0.25499510765075684
0.48750001192092896 0.4625000059604645 0.2674950957298279
0.48750001192092896 0.4625000059604645 0.2799951136112213
0.48749998211860657 0.4625004529953003 0.2924952805042267
0.48749977350234985 0.4625030755996704 0.30499622225761414
0.48749953508377075 0.46250635385513306 0.3174974322319031
0.48750001192092896 0.4749999940395355 0.22999510169029236
0.48750001192092896 0.4749999940395355 0.2424951046705246
0.48750001192092896 0.4749999940395355 0.25499510765075684
0.48750001192092896 0.4749999940395355 0.2674950957298279
0.48750001192092896 0.4749999940395355 0.2799951136112213
0.48749998211860657 0.4750005304813385 0.2924953103065491
0.48749974370002747 0.4750036597251892 0.30499643087387085
0.4874994456768036 0.4750075936317444 0.3174979090690613
0.48750001192092896 0.48750001192092896 0.22999510169029236
0.48750001192092896 0.48750001192092896 0.2424951046705246
0.48750001192092896 0.48750001192092896 0.25499510765075684
0.48750001192092896 0.48750001192092896 0.2674950957298279
0.48750001192092896 0.48750001192092896 0.2799951136112213
0.4874999523162842 0.4875006377696991 0.29249534010887146
0.4874996840953827 0.4875043034553528 0.30499666929244995
0.4874993562698364 0.4875088930130005 0.3174983561038971
0.48750001192092896 0.5 0.22999510169029236
0.48750001192092896 0.5 0.2424951046705246
0.48750001192092896 0.5 0.25499510765075684
0.48750001192092896 0.5 0.2674950957298279
0.48750001192092896 0.5 0.2799951136112213
0.4874999523162842 0.5000007152557373 0.29249536991119385
0.4874996542930603 0.5000048875808716 0.30499690771102905
0.48749926686286926 0.5000101327896118 0.3174988329410553
0.48750001192092896 0.512499988079071 0.22999510169029236
0.48750001192092896 0.512499988079071 0.2424951046705246
0.48750001192092896 0.512499988079071 0.25499510765075684
0.48750001192092896 0.512499988079071 0.2674950957298279
0.48750001192092896 0.512499988079071 0.2799951136112213
0.4874999523162842 0.5125005841255188 0.29249534010887146
0.4874996840953827 0.5125042796134949 0.30499666929244995
0.4874993562698364 0.5125088691711426 0.3174983561038971
0.48750001192092896 0.5249999761581421 0.22999510169029236
0.48750001192092896 0.5249999761581421 0.2424951046705246
0.48750001192092896 0.5249999761581421 0.25499510765075684
0.48750001192092896 0.5249999761581421 0.2674950957298279
0.48750001192092896 0.5249999761581421 0.2799951136112213
0.48749998211860657 0.5250005125999451 0.2924953103065491
0.48749974370002747 0.5250036716461182 0.30499646067619324
0.4874994456768036 0.5250076055526733 0.3174979090690613
0.48750001192092896 0.5375000238418579 0.22999510169029236
0.48750001192092896 0.5375000238418579 0.2424951046705246
0.48750001192092896 0.5375000238418579 0.25499510765075684
0.48750001192092896 0.5375000238418579 0.2674950957298279
0.48750001192092896 0.5375000238418579 0.2799951136112213
0.48749998211860657 0.5375004410743713 0.2924952805042267
0.48749977350234985 0.5375030636787415 0.30499622225761414
0.48749953508377075 0.5375063419342041 0.3174974322319031
0.5 0.44999998807907104 0.22999510169029236
0.5 0.44999998807907104 0.2424951046705246
0.5 0.44999998807907104 0.25499510765075684
0.5 0.44999998807907104 0.2674950957298279
0.5 0.44999998807907104 0.2799951136112213
0.5 0.44999998807907104 0.29249510169029236
0.5 0.44999998807907104 0.3049950897693634
0.5 0.44999998807907104 0.31749510765075684
0.5 0.4625000059604645 0.22999510169029236
0.5 0.4625000059604645 0.2424951046705246
0.5 0.4625000059604645 0.25499510765075684
0.5 0.4625000059604645 0.2674950957298279
0.5 0.4625000059604645 0.2799951136112213
0.5 0.4625000059604645 0.29249510169029236
0.5 0.4625000059604645 0.3049950897693634
0.5 0.4625000059604645 0.31749510765075684
0.5 0.4749999940395355 0.22999510169029236
0.5 0.4749999940395355 0.2424951046705246
0.5 0.4749999940395355 0.25499510765075684
0.5 0.4749999940395355 0.2674950957298279
0.5 0.4749999940395355 0.2799951136112213
0.5 0.4749999940395355 0.29249510169029236
0.5 0.4749999940395355 0.3049950897693634
0.5 0.4749999940395355 0.31749510765075684
0.5 0.48750001192092896 0.22999510169029236
0.5 0.48750001192092896 0.2424951046705246
0.5 0.48750001192092896 0.25499510765075684
0.5 0.48750001192092896 0.2674950957298279
0.5 0.48750001192092896 0.2799951136112213
0.5 0.48750001192092896 0.29249510169029236
0.5 0.48750001192092896 0.3049950897693634
0.5 0.48750001192092896 0.31749510765075684
0.5 0.5 0.22999510169029236
0.5 0.5 0.2424951046705246
0.5 0.5 0.25499510765075684
0.5 0.5 0.2674950957298279
0.5 0.5 0.2799951136112213
0.5 0.5 0.29249510169029236
0.5 0.5 0.3049950897693634
0.5 0.5 0.31749510765075684
0.5 0.512499988079071 0.22999510169029236
0.5 0.512499988079071 0.2424951046705246
0.5 0.512499988079071 0.25499510765075684
0.5 0.512499988079071 0.2674950957298279
0.5 0.512499988079071 0.2799951136112213
0.5 0.512499988079071 0.29249510169029236
0.5 0.512499988079071 0.3049950897693634
0.5 0.512499988079071 0.31749510765075684
0.5 0.5249999761581421 0.22999510169029236
0.5 0.5249999761581421 0.2424951046705246
0.5 0.5249999761581421 0.25499510765075684
0.5 0.5249999761581421 0.2674950957298279
0.5 0.5249999761581421 0.2799951136112213
0.5 0.5249999761581421 0.29249510169029236
0.5 0.5249999761581421 0.3049950897693634
0.5 0.5249999761581421 0.31749510765075684
0.5 0.5375000238418579 0.22999510169029236
0.5 0.5375000238418579 0.2424951046705246
0.5 0.5375000238418579 0.25499510765075684
0.5 0.5375000238418579 0.2674950957298279
0.5 0.5375000238418579 0.2799951136112213
0.5 0.5375000238418579 0.29249510169029236
0.5 0.5375000238418579 0.3049950897693634
0.5 0.5375000238418579 0.31749510765075684
0.512499988079071 0.44999998807907104 0.22999510169029236
0.512499988079071 0.44999998807907104 0.2424951046705246
0.512499988079071 0.44999998807907104 0.25499510765075684
0.512499988079071 0.44999998807907104 0.2674950957298279
0.512499988079071 0.44999998807907104 0.2799951136112213
0.512499988079071 0.44999998807907104 0.29249510169029236
0.512499988079071 0.44999998807907104 0.3049950897693634
0.512499988079071 0.44999998807907104 0.31749510765075684
0.512499988079071 0.4625000059604645 0.22999510169029236
0.512499988079071 0.4625000059604645 0.2424951046705246
0.512499988079071 0.4625000059604645 0.25499510765075684
0.512499988079071 0.4625000059604645 0.2674950957298279
0.512499988079071 0.4625000059604645 0.2799951136112213
0.512499988079071 0.4625000059604645 0.29249510169029236
0.512499988079071 0.4625000059604645 0.3049950897693634
0.512499988079071 0.4625000059604645 0.31749510765075684
0.512499988079071 0.4749999940395355 0.22999510169029236
0.512499988079071 0.4749999940395355 0.2424951046705246
0.512499988079071 0.4749999940395355 0.25499510765075684
0.512499988079071 0.4749999940395355 0.2674950957298279
0.512499988079071 0.4749999940395355 0.2799951136112213
0.512499988079071 0.4749999940395355 0.29249510169029236
0.512499988079071 0.4749999940395355 0.3049950897693634
0.512499988079071 0.4749999940395355 0.31749510765075684
0.512499988079071 0.48750001192092896 0.22999510169029236
0.512499988079071 0.48750001192092896 0.2424951046705246
0.512499988079071 0.48750001192092896 0.25499510765075684
0.512499988079071 0.48750001192092896 0.2674950957298279
0.512499988079071 0.48750001192092896 0.2799951136112213
0.512499988079071 0.48750001192092896 0.29249510169029236
0.512499988079071 0.48750001192092896 0.3049950897693634
0.512499988079071 0.48750001192092896 0.31749510765075684
0.512499988079071 0.5 0.22999510169029236
0.512499988079071 0.5 0.2424951046705246
0.512499988079071 0.5 0.25499510765075684
0.512499988079071 0.5 0.2674950957298279
0.512499988079071 0.5 0.2799951136112213
0.512499988079071 0.5 0.29249510169029236
0.512499988079071 0.5 0.3049950897693634
0.512499988079071 0.5 0.31749510765075684
0.512499988079071 0.512499988079071 0.22999510169029236
0.512499988079071 0.512499988079071 0.2424950897693634
0.512499988079071 0.512499988079071 0.25499510765075684
0.512499988079071 0.512499988079071 0.2674950957298279
0.512499988079071 0.512499988079071 0.2799951136112213
0.512499988079071 0.512499988079071 0.29249510169029236
0.512499988079071 0.512499988079071 0.3049950897693634
0.512499988079071 0.512499988079071 0.31749510765075684
0.512499988079071 0.5249999761581421 0.22999510169029236
0.512499988079071 0.5249999761581421 0.2424951046705246
0.512499988079071 0.5249999761581421 0.25499510765075684
0.512499988079071 0.5249999761581421 0.2674950957298279
0.512499988079071 0.5249999761581421 0.2799951136112213
0.512499988079071 0.5249999761581421 0.29249510169029236
0.512499988079071 0.5249999761581421 0.3049950897693634
0.512499988079071 0.5249999761581421 0.31749510765075684
0.512499988079071 0.5375000238418579 0.22999510169029236
0.512499988079071 0.5375000238418579 0.2424951046705246
0.512499988079071 0.5375000238418579 0.25499510765075684
0.512499988079071 0.5375000238418579 0.2674950957298279
0.512499988079071 0.5375000238418579 0.2799951136112213
0.512499988079071 0.5375000238418579 0.29249510169029236
0.512499988079071 0.5375000238418579 0.3049950897693634
0.512499988079071 0.5375000238418579 0.31749510765075684
0.5249999761581421 0.44999998807907104 0.22999510169029236
0.5249999761581421 0.44999998807907104 0.2424951046705246
0.5249999761581421 0.44999998807907104 0.25499510765075684
0.5249999761581421 0.44999998807907104 0.2674950957298279
0.5249999761581421 0.44999998807907104 0.2799951136112213
0.5249999761581421 0.44999998807907104 0.29249510169029236
0.5249999761581421 0.44999998807907104 0.3049950897693634
0.5249999761581421 0.44999998807907104 0.31749510765075684
0.5249999761581421 0.4625000059604645 0.22999510169029236
0.5249999761581421 0.4625000059604645 0.2424951046705246
0.5249999761581421 0.4625000059604645 0.25499510765075684
0.5249999761581421 0.4625000059604645 0.2674950957298279
0.5249999761581421 0.4625000059604645 0.2799951136112213
0.5249999761581421 0.4625000059604645 0.29249510169029236
0.5249999761581421 0.4625000059604645 0.3049950897693634
0.5249999761581421 0.4625000059604645 0.31749510765075684
0.5249999761581421 0.4749999940395355 0.22999510169029236
0.5249999761581421 0.4749999940395355 0.2424951046705246
0.5249999761581421 0.4749999940395355 0.25499510765075684
0.5249999761581421 0.4749999940395355 0.2674950957298279
0.5249999761581421 0.4749999940395355 0.2799951136112213
0.5249999761581421 0.4749999940395355 0.29249510169029236
0.5249999761581421 0.4749999940395355 0.3049950897693634
0.5249999761581421 0.4749999940395355 0.31749510765075684
0.5249999761581421 0.48750001192092896 0.22999510169029236
0.5249999761581421 0.48750001192092896 0.2424951046705246
0.5249999761581421 0.48750001192092896 0.25499510765075684
0.5249999761581421 0.48750001192092896 0.2674950957298279
0.5249999761581421 0.48750001192092896 0.2799951136112213
0.5249999761581421 0.48750001192092896 0.29249510169029236
0.5249999761581421 0.48750001192092896 0.3049950897693634
0.5249999761581421 0.48750001192092896 0.31749510765075684
0.5249999761581421 0.5 0.22999510169029236
0.5249999761581421 0.5 0.2424951046705246
0.5249999761581421 0.5 0.25499510765075684
0.5249999761581421 0.5 0.2674950957298279
0.5249999761581421 0.5 0.2799951136112213
0.5249999761581421 0.5 0.29249510169029236
0.5249999761581421 0.5 0.3049950897693634
0.5249999761581421 0.5 0.31749510765075684
0.5249999761581421 0.512499988079071 0.22999510169029236
0.5249999761581421 0.512499988079071 0.2424951046705246
0.5249999761581421 0.512499988079071 0.25499510765075684
0.5249999761581421 0.512499988079071 0.2674950957298279
0.5249999761581421 0.512499988079071 0.2799951136112213
0.5249999761581421 0.512499988079071 0.29249510169029236
0.5249999761581421 0.512499988079071 0.3049950897693634
0.5249999761581421 0.512499988079071 0.31749510765075684
0.5249999761581421 0.5249999761581421 0.22999510169029236
0.5249999761581421 0.5249999761581421 0.2424951046705246
0.5249999761581421 0.5249999761581421 0.25499510765075684
0.5249999761581421 0.5249999761581421 0.2674950957298279
0.5249999761581421 0.5249999761581421 0.2799951136112213
0.5249999761581421 0.5249999761581421 0.29249510169029236
0.5249999761581421 0.5249999761581421 0.3049950897693634
0.5249999761581421 0.5249999761581421 0.31749510765075684
0.5249999761581421 0.5375000238418579 0.22999510169029236
0.5249999761581421 0.5375000238418579 0.2424951046705246
0.5249999761581421 0.5375000238418579 0.25499510765075684
0.5249999761581421 0.5375000238418579 0.2674950957298279
0.5249999761581421 0.5375000238418579 0.2799951136112213
0.5249999761581421 0.5375000238418579 0.29249510169029236
0.5249999761581421 0.5375000238418579 0.3049950897693634
0.5249999761581421 0.5375000238418579 0.31749510765075684
0.5375000238418579 0.44999998807907104 0.22999510169029236
0.5375000238418579 0.44999998807907104 0.2424951046705246
0.5375000238418579 0.44999998807907104 0.25499510765075684
0.5375000238418579 0.44999998807907104 0.2674950957298279
0.5375000238418579 0.44999998807907104 0.2799951136112213
0.5375000238418579 0.44999998807907104 0.29249510169029236
0.5375000238418579 0.44999998807907104 0.3049950897693634
0.5375000238418579 0.4625000059604645 0.22999510169029236
0.5375000238418579 0.4625000059604645 0.2424951046705246
0.5375000238418579 0.4625000059604645 0.25499510765075684
0.5375000238418579 0.4625000059604645 0.2674950957298279
0.5375000238418579 0.4625000059604645 0.2799951136112213
0.5375000238418579 0.4625000059604645 0.29249510169029236
0.5375000238418579 0.4625000059604645 0.3049950897693634
0.5375000238418579 0.4625000059604645 0.31749510765075684
0.5375000238418579 0.4749999940395355 0.22999510169029236
0.5375000238418579 0.4749999940395355 0.2424951046705246
0.5375000238418579 0.4749999940395355 0.25499510765075684
0.5375000238418579 0.4749999940395355 0.2674950957298279
0.5375000238418579 0.4749999940395355 0.2799951136112213
0.5375000238418579 0.4749999940395355 0.29249510169029236
0.5375000238418579 0.4749999940395355 0.3049950897693634
0.5375000238418579 0.4749999940395355 0.31749510765075684
0.5375000238418579 0.48750001192092896 0.22999510169029236
0.5375000238418579 0.48750001192092896 0.2424951046705246
0.5375000238418579 0.48750001192092896 0.25499510765075684
0.5375000238418579 0.48750001192092896 0.2674950957298279
0.5375000238418579 0.48750001192092896 0.2799951136112213
0.5375000238418579 0.48750001192092896 0.29249510169029236
0.5375000238418579 0.48750001192092896 0.3049950897693634
0.5375000238418579 0.48750001192092896 0.31749510765075684
0.5375000238418579 0.5 0.22999510169029236
0.5375000238418579 0.5 0.2424951046705246
0.5375000238418579 0.5 0.25499510765075684
0.5375000238418579 0.5 0.2674950957298279
0.5375000238418579 0.5 0.2799951136112213
0.5375000238418579 0.5 0.29249510169029236
0.5375000238418579 0.5 0.3049950897693634
0.5375000238418579 0.5 0.31749510765075684
0.5375000238418579 0.512499988079071 0.22999510169029236
0.5375000238418579 0.512499988079071 0.2424951046705246
0.5375000238418579 0.512499988079071 0.25499510765075684
0.5375000238418579 0.512499988079071 0.2674950957298279
0.5375000238418579 0.512499988079071 0.2799951136112213
0.5375000238418579 0.512499988079071 0.29249510169029236
0.5375000238418579 0.512499988079071 0.3049950897693634
0.5375000238418579 0.512499988079071 0.31749510765075684
0.5375000238418579 0.5249999761581421 0.22999510169029236
0.5375000238418579 0.5249999761581421 0.2424951046705246
0.5375000238418579 0.5249999761581421 0.25499510765075684
0.5375000238418579 0.5249999761581421 0.2674950957298279
0.5375000238418579 0.5249999761581421 0.2799951136112213
0.5375000238418579 0.5249999761581421 0.29249510169029236
0.5375000238418579 0.5249999761581421 0.3049950897693634
0.5375000238418579 0.5249999761581421 0.31749510765075684
0.5375000238418579 0.5375000238418579 0.22999510169029236
0.5375000238418579 0.5375000238418579 0.2424951046705246
0.5375000238418579 0.5375000238418579 0.25499510765075684
0.5375000238418579 0.5375000238418579 0.2674950957298279
0.5375000238418579 0.5375000238418579 0.2799951136112213
0.5375000238418579 0.5375000238418579 0.29249510169029236
0.5375000238418579 0.5375000238418579 0.3049950897693634
0.5375000238418579 0.5375000238418579 0.31749510765075684
0.550000011920929 0.44999998807907104 0.22999510169029236
0.550000011920929 0.44999998807907104 0.2424951046705246
0.550000011920929 0.44999998807907104 0.25499510765075684
0.550000011920929 0.44999998807907104 0.2674950957298279
0.550000011920929 0.44999998807907104 0.2799951136112213
0.550000011920929 0.44999998807907104 0.29249510169029236
0.550000011920929 0.44999998807907104 0.3049950897693634
0.550000011920929 0.4625000059604645 0.22999510169029236
0.550000011920929 0.4625000059604645 0.2424951046705246
0.550000011920929 0.4625000059604645 0.25499510765075684
0.550000011920929 0.4625000059604645 0.2674950957298279
0.550000011920929 0.4625000059604645 0.2799951136112213
0.550000011920929 0.4625000059604645 0.29249510169029236
0.550000011920929 0.4625000059604645 0.3049950897693634
0.550000011920929 0.4749999940395355 0.22999510169029236
0.550000011920929 0.4749999940395355 0.2424951046705246
0.550000011920929 0.4749999940395355 0.25499510765075684
0.550000011920929 0.4749999940395355 0.2674950957298279
0.550000011920929 0.4749999940395355 0.2799951136112213
0.550000011920929 0.4749999940395355 0.29249510169029236
0.550000011920929 0.4749999940395355 0.3049950897693634
0.550000011920929 0.4749999940395355 0.31749510765075684
0.550000011920929 0.48750001192092896 0.22999510169029236
0.550000011920929 0.48750001192092896 0.2424951046705246
0.550000011920929 0.48750001192092896 0.25499510765075684
0.550000011920929 0.48750001192092896 0.2674950957298279
0.550000011920929 0.48750001192092896 0.2799951136112213
0.550000011920929 0.48750001192092896 0.29249510169029236
0.550000011920929 0.48750001192092896 0.3049950897693634
0.550000011920929 0.48750001192092896 0.31749510765075684
0.550000011920929 0.5 0.22999510169029236
0.550000011920929 0.5 0.2424951046705246
0.550000011920929 0.5 0.25499510765075684
0.550000011920929 0.5 0.2674950957298279
0.550000011920929 0.5 0.2799951136112213
0.550000011920929 0.5 0.29249510169029236
0.550000011920929 0.5 0.3049950897693634
0.550000011920929 0.5 0.31749510765075684
0.550000011920929 0.512499988079071 0.22999510169029236
0.550000011920929 0.512499988079071 0.2424951046705246
0.550000011920929 0.512499988079071 0.25499510765075684
0.550000011920929 0.512499988079071 0.2674950957298279
0.550000011920929 0.512499988079071 0.2799951136112213
0.550000011920929 0.512499988079071 0.29249510169029236
0.550000011920929 0.512499988079071 0.3049950897693634
0.550000011920929 0.512499988079071 0.31749510765075684
0.550000011920929 0.5249999761581421 0.22999510169029236
0.550000011920929 0.5249999761581421 0.2424951046705246
0.550000011920929 0.5249999761581421 0.25499510765075684
0.550000011920929 0.5249999761581421 0.2674950957298279
0.550000011920929 0.5249999761581421 0.2799951136112213
0.550000011920929 0.5249999761581421 0.29249510169029236
0.550000011920929 0.5249999761581421 0.3049950897693634
0.550000011920929 0.5249999761581421 0.31749510765075684
0.550000011920929 0.5375000238418579 0.22999510169029236
0.550000011920929 0.5375000238418579 0.2424951046705246
0.550000011920929 0.5375000238418579 0.25499510765075684
0.550000011920929 0.5375000238418579 0.2674950957298279
0.550000011920929 0.5375000238418579 0.2799951136112213
0.550000011920929 0.5375000238418579 0.29249510169029236
0.550000011920929 0.5375000238418579 0.3049950897693634
0.5625 0.44999998807907104 0.22999510169029236
0.5625 0.44999998807907104 0.2424951046705246
0.5625 0.44999998807907104 0.25499510765075684
0.5625 0.44999998807907104 0.2674950957298279
0.5625 0.44999998807907104 0.2799951136112213
0.5625 0.44999998807907104 0.29249510169029236
0.5625 0.44999998807907104 0.3049950897693634
0.5625 0.4625000059604645 0.22999510169029236
0.5625 0.4625000059604645 0.2424951046705246
0.5625 0.4625000059604645 0.25499510765075684
0.5625 0.4625000059604645 0.2674950957298279
0.5625 0.4625000059604645 0.2799951136112213
0.5625 0.4625000059604645 0.29249510169029236
0.5625 0.4625000059604645 0.3049950897693634
0.5625 0.4749999940395355 0.22999510169029236
0.5625 0.4749999940395355 0.2424951046705246
0.5625 0.4749999940395355 0.25499510765075684
0.5625 0.4749999940395355 0.2674950957298279
0.5625 0.4749999940395355 0.2799951136112213
0.5625 0.4749999940395355 0.29249510169029236
0.5625 0.4749999940395355 0.3049950897693634
0.5625 0.48750001192092896 0.22999510169029236
0.5625 0.48750001192092896 0.2424951046705246
0.5625 0.48750001192092896 0.25499510765075684
0.5625 0.48750001192092896 0.2674950957298279
0.5625 0.48750001192092896 0.2799951136112213
0.5625 0.48750001192092896 0.29249510169029236
0.5625 0.48750001192092896 0.3049950897693634
0.5625 0.5 0.22999510169029236
0.5625 0.5 0.2424951046705246
0.5625 0.5 0.25499510765075684
0.5625 0.5 0.2674950957298279
0.5625 0.5 0.2799951136112213
0.5625 0.5 0.29249510169029236
0.5625 0.5 0.3049950897693634
0.5625 0.512499988079071 0.22999510169029236
0.5625 0.512499988079071 0.2424951046705246
0.5625 0.512499988079071 0.25499510765075684
0.5625 0.512499988079071 0.2674950957298279
0.5625 0.512499988079071 0.2799951136112213
0.5625 0.512499988079071 0.29249510169029236
0.5625 0.512499988079071 0.3049950897693634
0.5625 0.5249999761581421 0.22999510169029236
0.5625 0.5249999761581421 0.2424951046705246
0.5625 0.5249999761581421 0.25499510765075684
0.5625 0.5249999761581421 0.2674950957298279
0.5625 0.5249999761581421 0.2799951136112213
0.5625 0.5249999761581421 0.29249510169029236
0.5625 0.5249999761581421 0.3049950897693634
0.5625 0.5375000238418579 0.22999510169029236
0.5625 0.5375000238418579 0.2424951046705246
0.5625 0.5375000238418579 0.25499510765075684
0.5625 0.5375000238418579 0.2674950957298279
0.5625 0.5375000238418579 0.2799951136112213
0.5625 0.5375000238418579 0.29249510169029236
0.5625 0.5375000238418579 0.3049950897693634
0.574999988079071 0.44999998807907104 0.22999510169029236
0.574999988079071 0.44999998807907104 0.2424951046705246
0.574999988079071 0.44999998807907104 0.25499510765075684
0.574999988079071 0.44999998807907104 0.2674950957298279
0.574999988079071 0.44999998807907104 0.2799951136112213
0.574999988079071 0.44999998807907104 0.29249510169029236
0.574999988079071 0.4625000059604645 0.22999510169029236
0.574999988079071 0.4625000059604645 0.2424951046705246
0.574999988079071 0.4625000059604645 0.25499510765075684
0.574999988079071 0.4625000059604645 0.2674950957298279
0.574999988079071 0.4625000059604645 0.2799951136112213
0.574999988079071 0.4625000059604645 0.29249510169029236
0.574999988079071 0.4749999940395355 0.22999510169029236
0.574999988079071 0.4749999940395355 0.2424951046705246
0.574999988079071 0.4749999940395355 0.25499510765075684
0.574999988079071 0.4749999940395355 0.2674950957298279
0.574999988079071 0.4749999940395355 0.2799951136112213
0.574999988079071 0.4749999940395355 0.29249510169029236
0.574999988079071 0.4749999940395355 0.3049950897693634
0.574999988079071 0.48750001192092896 0.22999510169029236
0.574999988079071 0.48750001192092896 0.2424951046705246
0.574999988079071 0.48750001192092896 0.25499510765075684
0.574999988079071 0.48750001192092896 0.2674950957298279
0.574999988079071 0.48750001192092896 0.2799951136112213
0.574999988079071 0.48750001192092896 0.29249510169029236
0.574999988079071 0.48750001192092896 0.3049950897693634
0.574999988079071 0.5 0.22999510169029236
0.574999988079071 0.5 0.2424951046705246
0.574999988079071 0.5 0.25499510765075684
0.574999988079071 0.5 0.2674950957298279
0.574999988079071 0.5 0.2799951136112213
0.574999988079071 0.5 0.29249510169029236
0.574999988079071 0.5 0.3049950897693634
0.574999988079071 0.512499988079071 0.22999510169029236
0.574999988079071 0.512499988079071 0.2424951046705246
0.574999988079071 0.512499988079071 0.25499510765075684
0.574999988079071 0.512499988079071 0.2674950957298279
0.574999988079071 0.512499988079071 0.2799951136112213
0.574999988079071 0.512499988079071 0.29249510169029236
0.574999988079071 0.512499988079071 0.3049950897693634
0.574999988079071 0.5249999761581421 0.22999510169029236
0.574999988079071 0.5249999761581421 0.2424951046705246
0.574999988079071 0.5249999761581421 0.25499510765075684
0.574999988079071 0.5249999761581421 0.2674950957298279
0.574999988079071 0.5249999761581421 0.2799951136112213
0.574999988079071 0.5249999761581421 0.29249510169029236
0.574999988079071 0.5249999761581421 0.3049950897693634
0.574999988079071 0.5375000238418579 0.22999510169029236
0.574999988079071 0.5375000238418579 0.2424951046705246
0.574999988079071 0.5375000238418579 0.25499510765075684
0.574999988079071 0.5375000238418579 0.2674950957298279
0.574999988079071 0.5375000238418579 0.2799951136112213
0.574999988079071 0.5375000238418579 0.29249510169029236
0.5874999761581421 0.44999998807907104 0.22999510169029236
0.5874999761581421 0.44999998807907104 0.2424951046705246
0.5874999761581421 0.44999998807907104 0.25499510765075684
0.5874999761581421 0.44999998807907104 0.2674950957298279
0.5874999761581421 0.44999998807907104 0.2799951136112213
0.5874999761581421 0.4625000059604645 0.22999510169029236
0.5874999761581421 0.4625000059604645 0.2424951046705246
0.5874999761581421 0.4625000059604645 0.25499510765075684
0.5874999761581421 0.4625000059604645 0.2674950957298279
0.5874999761581421 0.4625000059604645 0.2799951136112213
0.5874999761581421 0.4625000059604645 0.29249510169029236
0.5874999761581421 0.4749999940395355 0.22999510169029236
0.5874999761581421 0.4749999940395355 0.2424951046705246
0.5874999761581421 0.4749999940395355 0.25499510765075684
0.5874999761581421 0.4749999940395355 0.2674950957298279
0.5874999761581421 0.4749999940395355 0.2799951136112213
0.5874999761581421 0.4749999940395355 0.29249510169029236
0.5874999761581421 0.48750001192092896 0.22999510169029236
0.5874999761581421 0.48750001192092896 0.2424951046705246
0.5874999761581421 0.48750001192092896 0.25499510765075684
0.5874999761581421 0.48750001192092896 0.2674950957298279
0.5874999761581421 0.48750001192092896 0.2799951136112213
0.5874999761581421 0.48750001192092896 0.29249510169029236
0.5874999761581421 0.5 0.22999510169029236
0.5874999761581421 0.5 0.2424951046705246
0.5874999761581421 0.5 0.25499510765075684
0.5874999761581421 0.5 0.2674950957298279
0.5874999761581421 0.5 0.2799951136112213
0.5874999761581421 0.5 0.29249510169029236
0.5874999761581421 0.512499988079071 0.22999510169029236
0.5874999761581421 0.512499988079071 0.2424951046705246
0.5874999761581421 0.512499988079071 0.25499510765075684
0.5874999761581421 0.512499988079071 0.2674950957298279
0.5874999761581421 0.512499988079071 0.2799951136112213
0.5874999761581421 0.512499988079071 0.29249510169029236
0.5874999761581421 0.5249999761581421 0.22999510169029236
0.5874999761581421 0.5249999761581421 0.2424951046705246
0.5874999761581421 0.5249999761581421 0.25499510765075684
0.5874999761581421 0.5249999761581421 0.2674950957298279
0.5874999761581421 0.5249999761581421 0.2799951136112213
0.5874999761581421 0.5249999761581421 0.29249510169029236
0.5874999761581421 0.5375000238418579 0.22999510169029236
0.5874999761581421 0.5375000238418579 0.2424951046705246
0.5874999761581421 0.5375000238418579 0.25499510765075684
0.5874999761581421 0.5375000238418579 0.2674950957298279
0.5874999761581421 0.5375000238418579 0.2799951136112213
0.5874999761581421 0.5375000238418579 0.29249510169029236
0.6000000238418579 0.44999998807907104 0.22999510169029236
0.6000000238418579 0.44999998807907104 0.2424951046705246
0.6000000238418579 0.44999998807907104 0.25499510765075684
0.6000000238418579 0.44999998807907104 0.2674950957298279
0.6000000238418579 0.44999998807907104 0.2799951136112213
0.6000000238418579 0.4625000059604645 0.22999510169029236
0.6000000238418579 0.4625000059604645 0.2424951046705246
0.6000000238418579 0.4625000059604645 0.25499510765075684
0.6000000238418579 0.4625000059604645 0.2674950957298279
0.6000000238418579 0.4625000059604645 0.2799951136112213
0.6000000238418579 0.4749999940395355 0.22999510169029236
0.6000000238418579 0.4749999940395355 0.2424951046705246
0.6000000238418579 0.4749999940395355 0.25499510765075684
0.6000000238418579 0.4749999940395355 0.2674950957298279
0.6000000238418579 0.4749999940395355 0.2799951136112213
0.6000000238418579 0.48750001192092896 0.22999510169029236
0.6000000238418579 0.48750001192092896 0.2424951046705246
0.6000000238418579 0.48750001192092896 0.25499510765075684
0.6000000238418579 0.48750001192092896 0.2674950957298279
0.6000000238418579 0.48750001192092896 0.2799951136112213
0.6000000238418579 0.5 0.22999510169029236
0.6000000238418579 0.5 0.2424951046705246
0.6000000238418579 0.5 0.25499510765075684
0.6000000238418579 0.5 0.2674950957298279
0.6000000238418579 0.5 0.2799951136112213
0.6000000238418579 0.512499988079071 0.22999510169029236
0.6000000238418579 0.512499988079071 0.2424951046705246
0.6000000238418579 0.512499988079071 0.25499510765075684
0.6000000238418579 0.512499988079071 0.2674950957298279
0.6000000238418579 0.512499988079071 0.2799951136112213
0.6000000238418579 0.5249999761581421 0.22999510169029236
0.6000000238418579 0.5249999761581421 0.2424951046705246
0.6000000238418579 0.5249999761581421 0.25499510765075684
0.6000000238418579 0.5249999761581421 0.2674950957298279
0.6000000238418579 0.5249999761581421 0.2799951136112213
0.6000000238418579 0.5375000238418579 0.22999510169029236
0.6000000238418579 0.5375000238418579 0.2424951046705246
